ncols 			232
nrows 			56
xllcorner 			-20187.5
yllcorner 			-2785190
cellsize 			125.0
nodata_value 		1e+20
1e+20 1e+20 1e+20 1e+20 1e+20 1e+20 1e+20 1e+20 1e+20 1e+20 1e+20 1e+20 1e+20 1e+20 1e+20 1e+20 1e+20 1e+20 1106.82 1107.42 1107.64 1107.85 1107.5 1106.82 1106.39 1106.11 1106.74 1109.24 1111.54 1111.58 1109.62 1106.67 1102.9 1099.38 1096.61 1095.03 1093.91 1093.13 1091.61 1089.6 1088.07 1088.83 1089.18 1089.42 1090.09 1091.36 1091.85 1092.56 1092.72 1091.63 1089.81 1087.88 1086.37 1085.24 1083.57 1081.96 1080.66 1079.38 1078.65 1078.74 1079.35 1079.49 1079.32 1079.06 1077.96 1075.93 1074.22 1073.61 1073.04 1072.99 1072.89 1071.8 1070.15 1068.41 1066.44 1062.98 1061.42 1060.86 1061.31 1063.77 1066.42 1067.95 1070.76 1074.18 1076.08 1077.71 1080.18 1081.46 1082.55 1082.42 1082.47 1082.32 1081.89 1081.74 1081.67 1081.28 1081.37 1081.4 1081.62 1081.06 1080.5 1080.26 1079.53 1078.38 1077.27 1076.4 1074.52 1072.02 1068.7 1065.67 1063.45 1061.8 1060.33 1058.51 1057.22 1055.8 1055.5 1055.14 1053.88 1052.89 1056.26 1058.33 1059.58 1057.86 1055.64 1055.36 1056.74 1058.89 1059.57 1060.34 1062.35 1064.77 1067.76 1071.28 1074.48 1078.34 1081.22 1084.64 1088.55 1092.69 1097.64 1109.82 1143.41 1180.02 1188.67 1181.54 1157.5 1129.4 1119.51 1118.01 1117.24 1118.43 1119.71 1121.02 1120.79 1120.88 1120.49 1120.15 1120.18 1120.74 1121.02 1120.45 1119.07 1116.9 1114.34 1110.77 1106.33 1102.29 1099.21 1096.48 1095.17 1093.51 1093.61 1094.15 1094.21 1094.93 1093.61 1093.09 1093.37 1093.72 1093.72 1093.5 1093.52 1093.8 1091.73 1091.96 1091.36 1091.41 1089.99 1089.69 1088.87 1088.28 1087.4 1085.27 1084.36 1084.39 1084.25 1084.36 1084.51 1084.04 1083.7 1083.43 1083.06 1082.21 1081.15 1080.34 1079.32 1079.21 1079.82 1080.26 1079.34 1077.95 1076.47 1074.91 1073.21 1072.6 1071.83 1070.47 1068.6 1066.61 1065.39 1065.66 1067.02 1e+20 1e+20 1e+20 1e+20 1e+20 1e+20 1e+20 1e+20 1e+20
1e+20 1e+20 1e+20 1e+20 1e+20 1e+20 1e+20 1e+20 1e+20 1e+20 1e+20 1e+20 1e+20 1e+20 1e+20 1e+20 1e+20 1e+20 1108.18 1108.42 1108.06 1108.31 1108.16 1107.21 1107.2 1107.98 1109.4 1112.96 1114.64 1113.16 1109.74 1106.09 1102.54 1098.44 1095.88 1094.95 1094.18 1093.22 1091.89 1090.32 1089.76 1090.34 1090.98 1090.99 1091.19 1092.11 1092.48 1092.27 1092.21 1091.91 1090.41 1088.65 1087.06 1085.6 1083.32 1082.06 1081.74 1081.74 1081.0 1080.76 1081.14 1081.05 1080.52 1079.6 1078.14 1076.32 1076.08 1076.2 1076.26 1075.76 1074.85 1073.18 1071.71 1070.85 1070.58 1065.5 1062.23 1061.78 1061.41 1063.68 1067.33 1069.11 1072.32 1075.41 1076.06 1077.67 1079.59 1081.22 1082.04 1082.19 1082.47 1082.21 1082.5 1082.96 1082.31 1082.16 1081.96 1081.84 1082.0 1081.32 1081.18 1080.83 1079.77 1078.34 1076.68 1075.04 1073.69 1071.99 1068.72 1065.86 1063.5 1062.14 1061.36 1059.42 1058.21 1056.95 1056.85 1056.08 1055.04 1055.0 1057.89 1059.33 1059.5 1058.14 1056.15 1055.97 1056.86 1058.96 1060.58 1061.34 1062.03 1064.19 1066.92 1069.74 1072.77 1076.85 1080.26 1083.79 1087.52 1092.36 1098.03 1107.45 1132.13 1168.24 1183.46 1169.71 1146.96 1128.62 1119.85 1117.54 1117.43 1119.26 1121.75 1123.79 1124.73 1124.6 1123.74 1122.36 1121.41 1121.45 1121.14 1120.28 1119.06 1117.53 1115.39 1112.11 1108.0 1104.11 1100.93 1097.95 1096.5 1095.35 1094.97 1095.57 1095.63 1096.2 1096.01 1095.25 1094.58 1094.46 1094.37 1095.36 1095.94 1094.51 1093.65 1092.96 1092.4 1091.74 1091.47 1091.56 1090.8 1089.68 1088.58 1087.06 1086.0 1086.04 1086.28 1085.71 1085.85 1085.44 1084.76 1084.73 1084.45 1083.8 1082.76 1081.57 1080.88 1080.44 1080.95 1081.56 1080.14 1078.48 1077.25 1075.58 1073.58 1072.57 1071.5 1071.53 1071.12 1069.49 1069.51 1069.3 1069.65 1e+20 1e+20 1e+20 1e+20 1e+20 1e+20 1e+20 1e+20 1e+20
1e+20 1e+20 1e+20 1e+20 1e+20 1e+20 1e+20 1e+20 1e+20 1e+20 1e+20 1e+20 1e+20 1e+20 1e+20 1e+20 1e+20 1e+20 1110.4 1111.57 1110.53 1109.55 1109.56 1108.86 1108.28 1109.4 1111.39 1114.16 1113.55 1110.39 1107.34 1104.06 1101.7 1098.32 1096.46 1096.04 1095.14 1093.57 1091.89 1090.95 1091.13 1091.35 1092.35 1092.49 1093.05 1093.94 1094.06 1092.71 1092.27 1092.65 1091.16 1089.12 1087.45 1085.15 1083.2 1083.26 1083.76 1084.44 1084.26 1083.53 1083.05 1082.32 1081.38 1080.09 1078.42 1077.43 1077.89 1078.06 1077.96 1077.58 1076.48 1074.93 1073.09 1072.67 1071.91 1066.69 1062.04 1060.73 1060.79 1062.99 1066.45 1068.79 1070.7 1073.27 1075.02 1077.07 1079.79 1081.71 1082.36 1082.72 1082.9 1082.35 1082.28 1082.49 1082.06 1082.18 1082.13 1081.9 1081.69 1081.02 1081.16 1080.25 1079.33 1078.38 1076.92 1074.86 1072.9 1071.25 1068.92 1066.63 1064.67 1063.46 1062.97 1060.66 1058.73 1057.47 1057.41 1055.61 1055.86 1057.53 1059.97 1061.57 1061.59 1059.88 1057.1 1056.98 1057.61 1059.1 1060.87 1061.87 1062.2 1064.81 1067.09 1069.05 1072.26 1075.86 1079.34 1083.04 1086.68 1091.51 1096.02 1100.7 1111.63 1138.61 1157.83 1147.58 1133.85 1124.57 1119.19 1117.46 1117.7 1119.65 1123.04 1126.34 1128.51 1127.97 1126.69 1124.93 1123.57 1122.42 1121.45 1120.6 1119.28 1117.99 1115.99 1112.82 1109.2 1106.02 1102.43 1098.89 1096.96 1096.21 1095.81 1096.53 1096.74 1096.97 1096.78 1096.21 1095.47 1095.43 1095.61 1096.82 1096.64 1095.9 1096.01 1094.73 1093.73 1092.0 1092.46 1092.62 1092.44 1091.35 1090.15 1089.56 1089.13 1088.93 1089.64 1088.78 1089.25 1088.11 1086.45 1086.38 1085.77 1084.63 1083.92 1082.82 1082.54 1082.03 1081.92 1082.07 1080.55 1078.84 1077.71 1076.13 1074.26 1073.74 1073.31 1073.79 1074.38 1075.7 1076.51 1075.31 1073.99 1e+20 1e+20 1e+20 1e+20 1e+20 1e+20 1e+20 1e+20 1e+20
1e+20 1e+20 1e+20 1e+20 1e+20 1e+20 1e+20 1e+20 1e+20 1e+20 1e+20 1e+20 1e+20 1e+20 1e+20 1e+20 1e+20 1e+20 1111.33 1112.2 1112.05 1110.91 1110.54 1110.67 1110.0 1110.32 1111.51 1112.39 1110.54 1106.56 1104.98 1103.21 1102.62 1100.18 1098.18 1097.91 1096.42 1093.99 1092.14 1091.94 1091.34 1091.4 1092.59 1093.47 1094.38 1095.37 1095.99 1093.25 1092.91 1092.43 1091.2 1089.32 1087.13 1085.01 1084.17 1085.08 1085.88 1086.81 1086.61 1085.63 1084.41 1083.51 1082.03 1080.2 1079.0 1078.64 1079.72 1080.09 1079.76 1079.24 1078.71 1078.01 1077.03 1076.66 1075.37 1070.27 1064.96 1061.19 1061.11 1061.99 1065.69 1068.84 1071.75 1073.36 1074.9 1077.22 1080.12 1082.25 1083.1 1083.72 1084.14 1084.15 1083.0 1082.23 1081.82 1082.15 1082.32 1082.39 1082.3 1081.24 1080.46 1079.07 1078.36 1077.99 1077.04 1074.92 1072.9 1070.98 1069.24 1067.41 1065.94 1065.2 1064.18 1061.92 1059.99 1058.97 1058.43 1055.51 1056.57 1059.78 1061.73 1063.22 1063.76 1062.04 1059.74 1058.74 1058.49 1059.41 1061.14 1062.44 1063.84 1066.17 1068.0 1069.87 1072.71 1075.13 1078.51 1082.38 1086.48 1090.85 1095.46 1100.82 1106.22 1118.45 1131.86 1129.75 1124.44 1120.86 1118.19 1117.86 1118.12 1119.25 1123.03 1127.6 1131.18 1132.05 1130.61 1128.07 1125.59 1123.62 1122.76 1122.06 1120.03 1118.53 1116.42 1112.49 1109.3 1106.52 1103.45 1100.4 1097.43 1096.84 1097.03 1098.46 1099.03 1098.63 1097.46 1096.88 1097.45 1097.37 1097.69 1097.65 1097.28 1097.03 1096.82 1095.93 1095.87 1094.5 1093.57 1092.77 1092.18 1091.84 1091.09 1091.17 1091.07 1090.56 1091.17 1091.82 1093.78 1091.71 1089.18 1087.79 1087.0 1086.24 1086.04 1085.38 1084.62 1083.99 1083.7 1083.48 1082.07 1080.62 1079.05 1077.38 1075.63 1075.09 1075.23 1076.3 1078.19 1081.65 1083.15 1080.61 1078.1 1e+20 1e+20 1e+20 1e+20 1e+20 1e+20 1e+20 1e+20 1e+20
1e+20 1e+20 1e+20 1e+20 1e+20 1e+20 1e+20 1e+20 1e+20 1e+20 1e+20 1e+20 1e+20 1e+20 1e+20 1e+20 1e+20 1e+20 1111.95 1112.28 1112.01 1111.12 1110.56 1110.99 1110.96 1111.51 1111.98 1112.31 1110.81 1107.38 1105.41 1104.42 1103.8 1102.3 1100.24 1098.71 1097.35 1095.13 1093.86 1093.14 1092.13 1093.16 1093.59 1094.08 1094.57 1095.26 1095.44 1094.25 1093.3 1091.75 1089.74 1088.38 1087.06 1086.2 1086.41 1087.18 1087.8 1088.36 1087.72 1087.09 1085.43 1084.51 1082.7 1080.51 1080.9 1081.61 1082.08 1082.33 1081.74 1081.29 1081.07 1080.43 1079.85 1077.67 1076.11 1072.2 1067.66 1062.46 1061.2 1060.32 1064.21 1068.91 1073.87 1075.96 1077.05 1077.99 1080.1 1082.07 1083.57 1084.86 1085.93 1087.37 1086.61 1084.95 1083.04 1082.68 1082.69 1082.41 1081.8 1080.43 1079.69 1078.88 1077.96 1077.31 1076.09 1074.62 1072.73 1070.56 1068.83 1067.65 1066.38 1065.88 1064.82 1062.27 1060.0 1059.44 1058.95 1057.13 1057.28 1060.33 1063.05 1064.29 1064.93 1063.48 1061.71 1059.94 1059.3 1059.58 1061.09 1063.09 1065.1 1067.06 1068.68 1070.29 1072.62 1075.17 1077.77 1080.73 1084.69 1089.05 1093.48 1099.29 1104.38 1110.44 1116.71 1118.41 1121.3 1118.93 1117.51 1119.34 1117.95 1117.27 1120.73 1126.08 1132.8 1137.09 1134.14 1130.34 1126.73 1124.54 1123.88 1123.46 1121.7 1119.39 1116.83 1112.98 1109.39 1106.28 1104.0 1102.04 1098.72 1097.74 1097.6 1098.82 1099.89 1100.58 1099.99 1099.83 1099.76 1099.25 1098.71 1098.27 1098.15 1098.19 1097.76 1097.13 1097.29 1096.44 1094.39 1094.1 1093.39 1093.47 1093.22 1092.86 1092.38 1091.87 1091.23 1092.66 1093.85 1093.22 1091.47 1090.38 1089.68 1088.26 1088.11 1087.91 1086.73 1085.7 1085.39 1085.26 1083.08 1081.55 1079.84 1078.2 1076.77 1076.26 1076.87 1078.25 1080.29 1082.65 1083.29 1082.23 1e+20 1e+20 1e+20 1e+20 1e+20 1e+20 1e+20 1e+20 1e+20 1e+20
1e+20 1e+20 1e+20 1e+20 1e+20 1e+20 1e+20 1e+20 1e+20 1e+20 1e+20 1e+20 1e+20 1e+20 1e+20 1e+20 1e+20 1e+20 1114.53 1113.87 1112.85 1111.68 1111.57 1111.71 1111.5 1112.21 1112.98 1112.81 1111.35 1108.77 1107.1 1105.85 1105.16 1104.19 1101.92 1099.24 1098.3 1096.76 1095.87 1094.74 1094.71 1095.84 1094.7 1094.79 1094.65 1095.16 1096.17 1095.04 1093.13 1091.25 1089.08 1087.55 1087.87 1088.62 1089.09 1089.38 1089.4 1089.49 1089.16 1088.65 1085.95 1083.96 1082.14 1081.05 1082.04 1083.87 1084.27 1083.71 1083.72 1084.04 1084.0 1085.06 1084.6 1080.3 1075.51 1071.25 1067.14 1062.22 1062.05 1062.03 1063.84 1067.49 1072.41 1076.64 1078.51 1078.98 1080.24 1081.75 1084.13 1086.51 1087.11 1088.36 1089.51 1089.45 1087.13 1084.12 1082.66 1081.75 1080.99 1078.26 1078.47 1077.72 1076.93 1076.11 1074.99 1073.61 1071.68 1069.86 1068.54 1067.75 1066.68 1065.38 1064.0 1061.89 1058.91 1058.69 1059.04 1058.55 1059.44 1061.98 1064.91 1066.12 1066.37 1064.88 1062.99 1060.91 1060.09 1060.49 1061.98 1063.53 1065.64 1067.87 1069.36 1070.8 1072.57 1075.67 1077.64 1079.49 1082.17 1085.66 1089.96 1095.45 1100.41 1105.84 1111.16 1115.08 1118.07 1117.15 1116.57 1118.47 1115.9 1116.09 1118.93 1123.59 1130.7 1135.72 1134.49 1130.07 1127.27 1125.16 1124.18 1124.02 1122.86 1120.42 1117.37 1114.51 1110.61 1106.85 1103.85 1101.05 1099.05 1098.89 1098.93 1099.48 1100.27 1101.52 1102.03 1102.39 1101.39 1100.29 1099.24 1099.59 1099.48 1099.4 1098.79 1097.66 1097.38 1096.9 1095.52 1096.27 1095.16 1094.4 1095.29 1095.09 1094.28 1093.97 1092.67 1093.18 1093.25 1093.6 1092.99 1092.32 1091.14 1090.1 1089.99 1089.07 1088.32 1087.1 1087.08 1086.17 1083.44 1082.19 1080.54 1079.21 1078.23 1077.93 1078.49 1079.66 1081.25 1082.74 1083.24 1082.73 1e+20 1e+20 1e+20 1e+20 1e+20 1e+20 1e+20 1e+20 1e+20 1e+20
1e+20 1e+20 1e+20 1e+20 1e+20 1e+20 1e+20 1e+20 1e+20 1e+20 1e+20 1e+20 1e+20 1e+20 1e+20 1e+20 1e+20 1e+20 1e+20 1117.44 1115.72 1113.3 1112.6 1112.73 1112.94 1112.94 1113.41 1113.28 1111.93 1109.73 1108.07 1106.55 1105.79 1104.37 1102.48 1100.58 1099.14 1097.63 1096.77 1094.97 1093.79 1095.27 1095.73 1096.13 1095.97 1096.15 1097.65 1095.15 1093.53 1092.03 1090.52 1089.88 1090.12 1091.38 1091.8 1091.66 1091.18 1090.57 1089.66 1088.52 1086.36 1084.2 1083.3 1082.82 1082.98 1084.55 1084.82 1084.89 1086.29 1088.83 1089.33 1094.74 1092.23 1083.21 1074.4 1069.89 1066.75 1061.86 1062.48 1064.22 1065.19 1067.81 1070.34 1074.05 1077.24 1078.58 1080.15 1082.01 1084.77 1087.79 1088.38 1088.07 1089.28 1090.6 1090.64 1087.78 1083.91 1081.51 1080.2 1079.04 1078.96 1077.18 1075.85 1074.81 1073.31 1072.31 1070.53 1069.07 1068.16 1068.21 1068.09 1066.2 1063.48 1060.88 1057.88 1058.16 1059.92 1060.42 1061.56 1063.91 1066.46 1067.93 1068.21 1067.19 1065.07 1063.19 1061.89 1061.6 1062.32 1063.86 1065.78 1068.25 1069.96 1071.5 1073.29 1076.16 1078.13 1079.71 1081.22 1083.43 1087.1 1091.66 1097.42 1102.91 1108.21 1113.98 1116.06 1114.61 1113.27 1114.0 1113.7 1115.06 1117.91 1122.9 1128.98 1132.14 1130.48 1126.39 1125.47 1124.27 1123.16 1122.42 1122.01 1120.67 1118.07 1114.71 1110.89 1107.12 1103.1 1099.82 1099.04 1099.54 1100.33 1100.76 1101.72 1103.21 1103.16 1102.81 1102.33 1102.07 1101.07 1101.09 1101.09 1101.15 1100.34 1099.78 1098.41 1097.11 1096.48 1097.19 1096.84 1096.05 1096.35 1096.38 1095.89 1094.96 1094.2 1093.94 1093.8 1094.1 1094.16 1094.05 1092.77 1091.59 1090.35 1089.99 1089.13 1089.0 1089.05 1087.94 1086.19 1083.7 1081.73 1080.65 1079.95 1079.73 1080.07 1080.83 1081.85 1082.71 1e+20 1e+20 1e+20 1e+20 1e+20 1e+20 1e+20 1e+20 1e+20 1e+20 1e+20 1e+20
1e+20 1e+20 1e+20 1e+20 1e+20 1e+20 1e+20 1e+20 1e+20 1e+20 1e+20 1e+20 1e+20 1e+20 1e+20 1e+20 1e+20 1e+20 1e+20 1121.45 1119.38 1115.88 1114.28 1114.12 1114.4 1113.91 1113.77 1113.72 1112.62 1110.42 1108.54 1107.84 1106.32 1104.0 1102.42 1100.91 1099.04 1097.98 1097.3 1095.16 1094.03 1094.79 1095.79 1096.5 1096.29 1095.79 1097.58 1095.43 1094.84 1093.71 1092.18 1091.96 1092.46 1093.73 1093.82 1093.44 1092.83 1091.48 1089.84 1088.49 1087.13 1086.41 1086.38 1086.03 1085.27 1086.48 1087.66 1089.68 1092.28 1098.62 1098.38 1098.33 1094.03 1083.84 1073.72 1068.01 1064.78 1062.61 1062.9 1064.92 1066.64 1068.74 1070.9 1073.44 1076.38 1078.4 1080.41 1082.88 1086.24 1089.24 1090.12 1088.83 1089.05 1089.39 1089.45 1087.65 1083.93 1083.53 1081.38 1079.46 1078.08 1076.4 1074.87 1074.22 1072.86 1071.97 1070.62 1069.07 1068.1 1068.02 1068.29 1067.34 1064.27 1060.31 1057.08 1057.8 1059.84 1060.05 1062.02 1064.92 1067.74 1069.56 1070.46 1070.07 1067.85 1065.5 1063.82 1062.87 1062.69 1063.94 1065.31 1067.76 1069.84 1071.27 1073.35 1076.74 1078.76 1080.14 1081.8 1084.95 1089.64 1091.92 1100.55 1105.0 1108.27 1114.14 1113.39 1111.59 1110.36 1111.09 1111.82 1113.73 1116.77 1121.72 1126.38 1127.82 1126.46 1123.9 1123.18 1122.92 1122.22 1121.29 1120.29 1119.65 1117.41 1114.14 1110.74 1107.09 1103.38 1101.3 1101.1 1101.01 1101.67 1102.16 1102.98 1104.57 1104.48 1103.23 1103.55 1103.22 1102.5 1102.55 1102.51 1103.02 1101.72 1100.89 1099.85 1099.13 1098.63 1098.72 1098.21 1097.77 1097.39 1097.02 1096.71 1095.75 1095.62 1095.23 1094.91 1095.31 1095.61 1096.18 1095.14 1093.58 1090.95 1091.18 1090.65 1090.84 1090.92 1089.63 1088.28 1085.87 1083.91 1082.73 1082.0 1081.67 1e+20 1e+20 1e+20 1e+20 1e+20 1e+20 1e+20 1e+20 1e+20 1e+20 1e+20 1e+20 1e+20 1e+20 1e+20 1e+20
1e+20 1e+20 1e+20 1e+20 1e+20 1e+20 1e+20 1e+20 1e+20 1e+20 1e+20 1e+20 1e+20 1e+20 1e+20 1e+20 1e+20 1e+20 1e+20 1123.86 1120.66 1117.63 1115.63 1115.62 1115.44 1114.07 1113.31 1113.48 1113.32 1111.66 1109.99 1109.35 1106.46 1103.98 1102.51 1101.39 1099.5 1098.13 1097.42 1095.5 1094.54 1095.21 1096.15 1097.21 1097.33 1096.61 1098.96 1095.92 1093.97 1094.65 1093.31 1093.58 1093.99 1094.66 1094.48 1094.48 1094.45 1092.24 1090.07 1089.17 1088.7 1088.86 1089.04 1088.88 1087.39 1088.36 1091.9 1097.52 1102.88 1103.29 1100.05 1093.81 1087.0 1079.62 1071.83 1066.26 1063.55 1063.95 1065.86 1067.87 1069.47 1070.46 1072.46 1074.42 1076.64 1078.67 1080.87 1084.37 1087.28 1089.11 1089.22 1088.87 1090.86 1089.76 1088.07 1086.43 1085.69 1086.41 1080.93 1078.35 1078.2 1076.9 1075.55 1074.68 1072.95 1072.04 1071.01 1069.64 1068.01 1067.44 1066.62 1065.55 1063.93 1060.27 1057.58 1058.67 1059.95 1060.35 1062.34 1065.6 1068.8 1071.07 1072.2 1072.1 1070.21 1067.99 1065.55 1063.65 1062.43 1063.09 1064.7 1067.25 1069.29 1070.85 1073.39 1076.28 1078.85 1081.15 1084.03 1089.01 1098.38 1098.88 1106.21 1110.11 1110.71 1111.79 1109.78 1108.7 1107.65 1109.28 1111.19 1113.05 1116.17 1120.64 1124.0 1124.5 1122.72 1120.99 1120.55 1121.19 1121.18 1120.74 1119.53 1118.4 1116.52 1113.72 1110.68 1107.64 1104.82 1103.53 1104.24 1103.73 1103.58 1103.58 1104.57 1105.78 1105.73 1104.65 1104.08 1103.99 1104.44 1105.01 1103.88 1103.67 1102.54 1102.04 1101.49 1101.08 1100.72 1100.36 1100.47 1099.9 1099.37 1098.8 1099.19 1098.62 1098.44 1097.65 1096.87 1096.48 1096.45 1096.55 1096.38 1096.33 1095.39 1094.02 1092.23 1091.38 1090.88 1089.89 1088.85 1087.4 1085.98 1084.93 1084.18 1083.7 1e+20 1e+20 1e+20 1e+20 1e+20 1e+20 1e+20 1e+20 1e+20 1e+20 1e+20 1e+20 1e+20 1e+20 1e+20 1e+20
1e+20 1e+20 1e+20 1e+20 1e+20 1e+20 1e+20 1e+20 1e+20 1e+20 1e+20 1e+20 1e+20 1e+20 1e+20 1e+20 1e+20 1e+20 1e+20 1123.41 1120.8 1118.33 1116.41 1117.04 1116.52 1114.99 1113.55 1112.99 1112.87 1111.77 1110.25 1108.45 1106.34 1104.37 1102.98 1101.67 1099.91 1098.73 1098.02 1097.14 1096.02 1096.41 1096.77 1097.63 1097.89 1097.3 1096.05 1090.89 1089.2 1094.27 1094.54 1095.39 1096.33 1096.17 1095.72 1095.09 1094.1 1091.87 1090.67 1090.55 1090.65 1090.89 1091.62 1092.44 1092.15 1093.89 1098.63 1104.57 1102.33 1096.16 1091.29 1082.62 1074.7 1070.42 1066.13 1064.6 1064.16 1066.66 1070.02 1071.76 1072.27 1071.57 1072.42 1074.5 1076.94 1079.24 1081.64 1085.33 1087.33 1089.02 1089.13 1089.87 1088.94 1089.37 1087.84 1087.11 1086.09 1084.83 1081.67 1077.84 1079.52 1078.22 1076.58 1075.41 1073.8 1072.25 1070.66 1068.62 1066.65 1065.47 1064.45 1062.82 1061.91 1059.76 1057.12 1058.61 1059.89 1061.01 1062.95 1066.28 1069.74 1072.11 1073.38 1074.08 1072.81 1070.75 1068.02 1066.16 1064.15 1063.34 1064.34 1066.39 1068.59 1070.24 1072.57 1075.32 1078.31 1081.26 1084.92 1089.66 1096.48 1095.64 1101.22 1108.32 1108.73 1106.58 1105.4 1106.21 1106.58 1108.98 1111.48 1113.17 1115.75 1119.55 1121.53 1122.09 1119.69 1119.31 1119.81 1120.38 1120.41 1120.02 1118.69 1117.28 1115.67 1113.35 1110.79 1108.42 1106.13 1105.5 1106.02 1105.85 1105.44 1105.35 1105.9 1106.15 1106.5 1106.09 1105.24 1105.1 1106.07 1106.8 1105.89 1105.37 1104.8 1104.19 1103.46 1102.86 1102.47 1101.8 1102.14 1101.9 1101.51 1100.7 1100.75 1101.14 1101.38 1100.56 1099.35 1098.45 1097.83 1097.1 1097.46 1098.56 1100.08 1098.97 1097.63 1094.07 1091.93 1090.66 1089.89 1088.91 1087.93 1087.08 1086.35 1e+20 1e+20 1e+20 1e+20 1e+20 1e+20 1e+20 1e+20 1e+20 1e+20 1e+20 1e+20 1e+20 1e+20 1e+20 1e+20 1e+20
1e+20 1e+20 1e+20 1e+20 1e+20 1e+20 1e+20 1e+20 1e+20 1e+20 1e+20 1e+20 1e+20 1e+20 1e+20 1e+20 1e+20 1e+20 1e+20 1122.69 1121.2 1119.59 1118.21 1117.75 1117.39 1116.39 1115.22 1114.23 1113.35 1111.9 1109.65 1107.32 1106.5 1105.04 1103.45 1101.77 1100.09 1099.04 1098.17 1097.25 1096.51 1097.46 1097.78 1097.86 1098.4 1097.96 1097.26 1095.77 1095.23 1099.06 1096.94 1097.52 1098.88 1097.55 1096.44 1095.56 1094.35 1092.65 1091.91 1092.82 1093.2 1093.04 1093.61 1094.81 1098.05 1105.02 1104.69 1103.9 1097.66 1090.83 1084.76 1075.87 1068.59 1064.17 1062.36 1064.79 1068.66 1071.5 1073.29 1074.45 1074.58 1074.18 1072.72 1074.13 1076.8 1079.45 1082.6 1086.83 1088.93 1092.27 1089.49 1088.37 1087.87 1089.85 1087.76 1085.96 1085.38 1083.9 1082.23 1080.84 1081.46 1079.89 1077.67 1075.98 1074.15 1072.27 1070.48 1067.7 1066.33 1065.9 1064.49 1062.99 1061.78 1060.51 1058.76 1059.59 1059.52 1060.88 1063.24 1066.78 1070.34 1072.75 1074.38 1075.18 1074.81 1073.88 1071.78 1069.7 1067.76 1065.59 1064.72 1065.06 1067.18 1069.3 1071.95 1074.62 1077.62 1080.78 1084.08 1086.99 1090.79 1092.99 1097.72 1105.67 1104.62 1100.46 1099.42 1100.75 1103.83 1106.97 1109.78 1112.2 1114.85 1117.47 1118.49 1118.59 1117.52 1117.76 1119.03 1119.19 1119.56 1119.33 1118.3 1116.72 1115.18 1113.13 1111.14 1109.46 1107.52 1106.98 1107.3 1107.78 1106.87 1106.8 1106.97 1106.85 1107.95 1107.96 1107.0 1106.65 1107.35 1107.75 1107.8 1106.98 1106.57 1106.01 1105.79 1105.53 1106.09 1105.28 1104.4 1103.25 1102.63 1103.28 1103.18 1103.47 1103.38 1102.77 1101.99 1100.66 1099.53 1099.12 1099.02 1098.74 1099.74 1101.38 1103.93 1101.35 1095.89 1092.57 1091.03 1e+20 1e+20 1e+20 1e+20 1e+20 1e+20 1e+20 1e+20 1e+20 1e+20 1e+20 1e+20 1e+20 1e+20 1e+20 1e+20 1e+20 1e+20 1e+20 1e+20 1e+20
1e+20 1e+20 1e+20 1e+20 1e+20 1e+20 1e+20 1e+20 1e+20 1e+20 1e+20 1e+20 1e+20 1e+20 1e+20 1e+20 1e+20 1e+20 1e+20 1122.39 1121.87 1120.55 1119.0 1118.32 1118.21 1117.77 1116.91 1116.17 1115.13 1113.08 1110.34 1108.05 1106.78 1105.2 1103.26 1101.4 1100.12 1099.09 1098.07 1096.62 1096.7 1097.79 1098.74 1098.69 1099.06 1098.57 1098.61 1098.24 1097.93 1098.61 1097.64 1098.49 1099.4 1098.78 1097.13 1096.13 1095.28 1093.91 1093.51 1094.43 1096.29 1097.02 1096.94 1096.84 1101.45 1107.92 1102.14 1094.03 1089.51 1084.62 1080.06 1072.71 1066.21 1063.03 1064.31 1067.89 1074.22 1075.31 1075.8 1076.49 1077.23 1078.03 1075.2 1075.55 1077.66 1080.2 1083.17 1088.16 1088.52 1092.23 1089.93 1093.36 1092.8 1093.99 1088.13 1085.92 1086.14 1085.04 1083.69 1083.08 1082.04 1080.2 1077.91 1076.33 1074.36 1072.32 1070.87 1068.53 1067.24 1068.02 1065.83 1064.36 1062.96 1061.44 1059.68 1060.48 1059.97 1060.78 1062.74 1067.07 1070.91 1073.25 1075.12 1076.01 1076.0 1075.68 1074.42 1072.0 1070.21 1067.91 1066.2 1065.4 1066.79 1068.55 1071.17 1073.79 1076.75 1080.08 1083.52 1085.7 1088.53 1091.1 1094.69 1098.92 1099.29 1095.82 1095.13 1095.5 1099.46 1103.53 1106.97 1109.89 1112.53 1115.07 1115.51 1115.54 1115.16 1115.42 1116.68 1117.49 1118.61 1118.8 1118.01 1116.75 1115.36 1113.3 1111.37 1109.51 1108.51 1108.68 1109.62 1110.35 1109.62 1108.73 1108.88 1109.01 1109.42 1110.4 1110.41 1109.85 1109.65 1109.74 1108.76 1107.97 1108.08 1107.26 1107.3 1107.58 1107.79 1108.08 1107.07 1105.79 1104.51 1105.0 1105.07 1105.45 1104.74 1104.11 1104.2 1103.99 1102.35 1101.49 1100.72 1099.13 1098.29 1099.04 1102.05 1102.25 1098.31 1094.97 1093.03 1e+20 1e+20 1e+20 1e+20 1e+20 1e+20 1e+20 1e+20 1e+20 1e+20 1e+20 1e+20 1e+20 1e+20 1e+20 1e+20 1e+20 1e+20 1e+20 1e+20 1e+20
1e+20 1e+20 1e+20 1e+20 1e+20 1e+20 1e+20 1e+20 1e+20 1e+20 1e+20 1e+20 1e+20 1e+20 1e+20 1e+20 1e+20 1e+20 1e+20 1122.1 1121.21 1120.27 1118.88 1118.51 1118.1 1117.76 1116.45 1116.61 1116.32 1114.6 1111.75 1109.34 1107.49 1105.61 1103.88 1101.65 1100.64 1099.33 1098.4 1097.41 1097.69 1097.92 1098.87 1099.29 1099.84 1099.59 1099.45 1099.39 1099.0 1098.22 1098.8 1099.19 1099.87 1099.91 1098.81 1096.69 1096.6 1095.57 1095.06 1095.81 1098.0 1100.63 1101.59 1100.12 1099.97 1099.48 1095.42 1088.64 1084.21 1079.49 1074.88 1067.67 1064.09 1065.29 1069.88 1072.7 1077.09 1077.99 1078.8 1079.23 1079.29 1078.36 1076.58 1077.11 1078.53 1080.77 1083.15 1086.12 1086.91 1088.31 1092.85 1097.47 1096.34 1095.44 1091.69 1089.45 1087.57 1086.49 1085.31 1084.12 1082.45 1080.27 1077.95 1076.22 1074.25 1073.15 1072.18 1070.95 1069.11 1068.44 1066.21 1065.47 1064.37 1062.71 1060.66 1061.35 1060.88 1061.06 1062.89 1067.01 1070.82 1073.57 1075.97 1077.31 1077.5 1076.78 1075.22 1074.05 1072.53 1070.38 1068.64 1067.5 1067.33 1068.37 1070.74 1073.12 1075.96 1079.11 1082.2 1084.67 1087.11 1088.82 1091.25 1092.64 1093.58 1093.09 1093.72 1095.44 1097.98 1101.35 1104.41 1107.11 1109.28 1112.23 1113.1 1113.16 1114.21 1114.05 1114.98 1116.0 1117.51 1118.12 1117.11 1116.3 1115.78 1113.84 1111.52 1109.34 1109.11 1110.35 1111.59 1111.98 1111.65 1110.05 1110.21 1110.27 1110.0 1111.11 1112.28 1112.42 1111.66 1110.87 1109.73 1109.72 1109.38 1108.22 1108.38 1108.35 1107.76 1108.11 1107.97 1108.32 1107.42 1107.46 1106.79 1107.39 1105.91 1104.43 1104.33 1104.06 1103.05 1102.15 1101.08 1099.37 1098.04 1097.83 1098.96 1099.57 1098.23 1096.39 1e+20 1e+20 1e+20 1e+20 1e+20 1e+20 1e+20 1e+20 1e+20 1e+20 1e+20 1e+20 1e+20 1e+20 1e+20 1e+20 1e+20 1e+20 1e+20 1e+20 1e+20 1e+20
1e+20 1e+20 1e+20 1e+20 1e+20 1e+20 1e+20 1e+20 1e+20 1e+20 1e+20 1e+20 1e+20 1e+20 1e+20 1e+20 1e+20 1e+20 1e+20 1122.17 1121.45 1120.54 1118.93 1118.47 1117.39 1116.68 1115.7 1114.66 1114.03 1113.79 1111.93 1110.17 1108.35 1105.94 1104.23 1102.51 1101.69 1099.56 1098.54 1097.91 1098.31 1098.41 1099.43 1100.26 1100.58 1100.55 1100.46 1100.8 1100.52 1099.77 1100.06 1099.82 1100.41 1100.86 1101.02 1098.07 1097.78 1097.29 1097.01 1097.27 1098.37 1100.65 1102.33 1101.43 1099.37 1095.82 1092.23 1087.82 1081.68 1074.35 1067.35 1064.2 1064.65 1072.01 1075.28 1075.93 1078.15 1081.31 1082.36 1082.66 1081.24 1078.51 1077.39 1078.04 1079.24 1081.53 1083.6 1085.48 1087.19 1089.12 1094.2 1094.1 1094.83 1094.77 1092.47 1090.98 1088.7 1087.73 1087.04 1085.63 1083.53 1081.29 1078.25 1076.0 1074.33 1074.09 1073.15 1071.96 1069.81 1068.62 1067.72 1067.14 1065.83 1062.87 1060.22 1060.63 1061.0 1061.21 1063.43 1067.01 1070.95 1073.56 1076.06 1077.99 1079.14 1078.68 1077.46 1076.22 1074.72 1072.88 1070.85 1069.35 1068.75 1069.06 1071.19 1073.33 1075.65 1078.79 1081.73 1083.82 1085.53 1086.98 1089.18 1090.34 1091.08 1091.91 1094.02 1096.22 1098.39 1100.61 1102.98 1105.56 1107.23 1109.98 1111.24 1110.52 1111.85 1113.19 1114.27 1115.15 1116.45 1117.35 1117.31 1116.49 1115.72 1114.24 1112.2 1110.28 1109.92 1111.05 1112.46 1113.95 1114.34 1113.35 1112.55 1112.09 1112.08 1112.42 1113.8 1114.06 1113.39 1113.1 1112.49 1112.16 1111.79 1111.66 1111.17 1109.65 1108.85 1109.34 1109.19 1109.56 1108.79 1108.39 1108.67 1110.23 1107.94 1105.73 1104.48 1103.61 1102.8 1102.02 1100.97 1099.55 1098.29 1097.72 1097.9 1098.11 1097.93 1097.28 1e+20 1e+20 1e+20 1e+20 1e+20 1e+20 1e+20 1e+20 1e+20 1e+20 1e+20 1e+20 1e+20 1e+20 1e+20 1e+20 1e+20 1e+20 1e+20 1e+20 1e+20 1e+20
1e+20 1e+20 1e+20 1e+20 1e+20 1e+20 1e+20 1e+20 1e+20 1e+20 1e+20 1e+20 1e+20 1e+20 1e+20 1e+20 1e+20 1e+20 1e+20 1123.01 1123.25 1121.43 1119.37 1118.84 1117.71 1116.53 1115.48 1114.11 1112.44 1111.52 1111.03 1110.28 1108.83 1106.51 1104.48 1103.52 1102.05 1099.93 1099.02 1099.03 1099.45 1099.33 1100.01 1101.02 1101.44 1101.46 1101.93 1103.15 1102.62 1101.93 1102.26 1101.46 1101.02 1101.06 1101.3 1100.26 1100.01 1099.2 1098.97 1099.62 1100.15 1101.12 1101.63 1101.16 1098.88 1095.71 1091.53 1085.87 1079.11 1070.24 1064.32 1064.87 1071.52 1079.45 1081.16 1080.41 1081.17 1085.55 1085.84 1086.1 1083.9 1079.53 1078.43 1079.19 1080.5 1082.11 1084.07 1086.46 1088.22 1091.09 1091.91 1088.85 1092.03 1092.32 1093.38 1093.21 1091.3 1089.93 1089.84 1089.07 1085.5 1083.22 1080.21 1077.36 1075.54 1074.74 1074.26 1072.96 1070.3 1068.6 1069.29 1069.27 1067.76 1063.64 1060.72 1059.49 1060.99 1061.46 1063.13 1066.35 1070.47 1073.2 1075.6 1077.77 1079.48 1079.92 1079.32 1078.06 1076.79 1075.23 1073.33 1071.52 1070.7 1070.42 1072.35 1074.29 1075.74 1078.64 1081.31 1083.42 1084.53 1086.09 1088.0 1089.51 1090.45 1092.02 1094.9 1096.94 1098.65 1100.28 1102.75 1104.3 1104.69 1106.91 1108.96 1107.66 1111.06 1113.13 1114.38 1115.26 1116.1 1116.96 1117.19 1116.83 1115.83 1114.42 1113.12 1111.61 1111.44 1112.25 1113.19 1115.25 1116.69 1116.38 1114.79 1113.45 1114.59 1114.77 1115.1 1115.35 1114.26 1114.35 1114.5 1113.81 1113.14 1114.63 1113.59 1111.91 1110.44 1111.53 1111.19 1111.3 1110.25 1109.26 1108.66 1109.48 1108.21 1106.45 1104.98 1103.81 1102.67 1101.93 1101.0 1099.86 1098.78 1098.11 1097.89 1097.87 1097.85 1098.0 1e+20 1e+20 1e+20 1e+20 1e+20 1e+20 1e+20 1e+20 1e+20 1e+20 1e+20 1e+20 1e+20 1e+20 1e+20 1e+20 1e+20 1e+20 1e+20 1e+20 1e+20 1e+20
1e+20 1e+20 1e+20 1e+20 1e+20 1e+20 1e+20 1e+20 1e+20 1e+20 1e+20 1e+20 1e+20 1e+20 1e+20 1e+20 1e+20 1e+20 1e+20 1122.79 1122.62 1121.55 1120.01 1119.19 1118.36 1117.08 1115.58 1114.68 1113.13 1111.43 1110.6 1109.71 1108.48 1106.9 1105.04 1103.63 1102.56 1101.04 1100.28 1100.42 1100.66 1100.71 1100.8 1101.59 1102.18 1102.24 1102.96 1104.01 1103.71 1102.97 1102.88 1102.49 1101.7 1101.81 1101.44 1100.55 1100.1 1099.98 1099.82 1100.87 1102.52 1102.96 1102.81 1101.33 1098.37 1095.35 1090.37 1082.5 1074.19 1066.95 1065.47 1070.55 1078.31 1080.94 1081.99 1082.68 1084.73 1086.44 1086.82 1086.99 1084.3 1080.2 1079.58 1080.08 1081.49 1082.98 1085.25 1087.36 1087.89 1090.65 1091.59 1091.46 1090.58 1090.06 1093.79 1094.74 1093.57 1092.16 1090.54 1087.74 1084.51 1083.25 1081.83 1080.35 1078.92 1077.47 1076.41 1075.19 1073.8 1070.24 1070.55 1069.86 1069.21 1065.53 1061.98 1058.72 1059.43 1060.59 1062.06 1065.19 1068.98 1071.94 1075.01 1077.42 1078.99 1079.97 1080.17 1079.79 1078.88 1077.75 1076.24 1074.68 1072.67 1071.1 1072.01 1074.1 1074.98 1077.56 1080.38 1082.74 1083.6 1084.74 1086.53 1088.03 1089.29 1091.32 1094.06 1096.51 1098.21 1099.76 1101.96 1103.41 1103.62 1104.63 1106.67 1107.51 1110.55 1112.58 1114.34 1116.11 1116.49 1117.31 1117.54 1117.52 1116.62 1115.41 1114.74 1113.71 1113.51 1114.64 1115.44 1116.96 1118.77 1118.15 1116.35 1114.5 1116.13 1116.92 1116.91 1116.52 1116.05 1115.5 1114.56 1114.2 1113.61 1115.28 1114.96 1113.49 1112.67 1113.01 1112.34 1112.25 1111.5 1110.63 1110.11 1110.2 1108.53 1106.97 1105.54 1104.27 1103.13 1102.24 1101.32 1100.33 1099.4 1098.72 1098.35 1098.21 1098.21 1098.28 1e+20 1e+20 1e+20 1e+20 1e+20 1e+20 1e+20 1e+20 1e+20 1e+20 1e+20 1e+20 1e+20 1e+20 1e+20 1e+20 1e+20 1e+20 1e+20 1e+20 1e+20 1e+20
1e+20 1e+20 1e+20 1e+20 1e+20 1e+20 1e+20 1e+20 1e+20 1e+20 1e+20 1e+20 1e+20 1e+20 1e+20 1e+20 1e+20 1e+20 1e+20 1122.44 1121.7 1120.92 1120.16 1119.49 1119.0 1117.77 1115.42 1114.44 1113.2 1112.19 1110.9 1109.39 1108.15 1107.33 1105.31 1104.2 1103.03 1102.54 1101.72 1101.47 1101.9 1102.77 1102.82 1102.73 1103.05 1103.95 1103.99 1104.31 1103.85 1103.56 1103.29 1103.16 1102.57 1103.05 1101.77 1101.07 1100.14 1100.46 1101.02 1102.78 1105.74 1106.52 1104.64 1100.28 1096.28 1091.88 1086.41 1078.81 1070.92 1067.23 1068.03 1076.43 1082.81 1082.78 1083.02 1085.61 1087.19 1086.86 1087.69 1087.52 1085.15 1081.85 1080.78 1080.84 1082.31 1084.21 1086.14 1087.45 1088.78 1091.55 1093.09 1093.07 1091.91 1093.93 1096.11 1096.77 1095.33 1094.66 1092.34 1089.18 1085.64 1084.14 1082.28 1082.21 1083.3 1083.52 1079.99 1077.51 1076.45 1074.54 1073.94 1071.11 1069.4 1066.86 1063.74 1059.73 1059.34 1060.51 1062.0 1064.71 1068.17 1071.64 1074.77 1077.0 1078.76 1080.28 1081.89 1082.01 1080.94 1080.07 1079.11 1078.3 1075.72 1072.78 1071.71 1073.42 1075.08 1076.84 1079.2 1081.13 1082.17 1083.22 1085.07 1087.05 1089.84 1091.6 1092.99 1094.99 1096.88 1098.33 1100.4 1101.66 1102.53 1103.43 1104.77 1107.03 1110.33 1112.52 1114.01 1115.95 1117.82 1118.5 1118.43 1118.3 1117.6 1116.49 1116.19 1115.87 1116.23 1117.17 1117.52 1118.12 1119.5 1119.83 1118.35 1117.09 1118.08 1119.37 1118.6 1117.54 1117.13 1116.39 1115.38 1115.52 1115.49 1116.68 1115.69 1114.87 1114.56 1114.53 1114.03 1113.59 1112.81 1111.91 1111.16 1110.49 1109.04 1107.55 1106.14 1104.87 1103.72 1102.74 1101.8 1100.88 1100.03 1099.37 1098.94 1098.72 1098.64 1098.6 1e+20 1e+20 1e+20 1e+20 1e+20 1e+20 1e+20 1e+20 1e+20 1e+20 1e+20 1e+20 1e+20 1e+20 1e+20 1e+20 1e+20 1e+20 1e+20 1e+20 1e+20 1e+20
1e+20 1e+20 1e+20 1e+20 1e+20 1e+20 1e+20 1e+20 1e+20 1e+20 1e+20 1e+20 1e+20 1e+20 1e+20 1e+20 1e+20 1e+20 1e+20 1123.42 1122.12 1120.94 1120.55 1119.65 1119.47 1118.2 1116.5 1114.91 1113.45 1112.8 1112.05 1109.9 1108.94 1108.12 1105.86 1105.1 1104.09 1103.75 1103.05 1102.62 1103.12 1103.97 1103.93 1103.9 1104.33 1105.31 1105.47 1105.3 1104.29 1104.44 1104.86 1104.52 1103.34 1102.82 1102.3 1103.17 1102.47 1102.91 1105.17 1108.6 1110.57 1109.73 1106.16 1098.85 1092.38 1088.2 1082.91 1075.65 1070.16 1068.63 1071.4 1080.46 1086.06 1086.56 1087.64 1087.97 1087.5 1088.22 1088.72 1088.58 1086.29 1083.01 1081.51 1082.04 1083.7 1084.92 1086.09 1087.27 1088.8 1092.07 1095.44 1096.27 1095.55 1097.3 1099.01 1098.49 1097.51 1098.29 1095.04 1092.45 1089.62 1087.98 1083.52 1083.34 1086.71 1086.66 1082.49 1079.96 1079.58 1079.73 1077.72 1073.7 1070.53 1068.23 1064.89 1061.92 1061.21 1061.69 1063.04 1065.81 1069.16 1071.92 1074.45 1076.72 1078.7 1080.63 1082.31 1083.2 1082.67 1081.97 1080.86 1080.32 1078.29 1075.39 1073.28 1073.72 1075.89 1077.38 1078.84 1079.64 1081.18 1082.93 1084.66 1086.69 1089.1 1091.39 1092.07 1093.75 1095.47 1097.16 1098.66 1099.45 1101.19 1102.94 1105.12 1107.18 1109.96 1112.48 1114.77 1116.61 1120.15 1119.69 1119.45 1119.14 1118.33 1117.31 1117.64 1117.98 1118.32 1119.42 1119.24 1119.34 1119.91 1120.44 1118.61 1118.48 1119.35 1120.8 1120.3 1119.93 1119.23 1118.23 1117.37 1117.35 1117.9 1118.21 1117.23 1116.75 1116.74 1116.5 1115.87 1115.09 1114.14 1113.03 1111.97 1110.89 1109.53 1108.1 1106.73 1105.46 1e+20 1e+20 1e+20 1e+20 1e+20 1e+20 1e+20 1e+20 1e+20 1e+20 1e+20 1e+20 1e+20 1e+20 1e+20 1e+20 1e+20 1e+20 1e+20 1e+20 1e+20 1e+20 1e+20 1e+20 1e+20 1e+20 1e+20 1e+20 1e+20 1e+20 1e+20 1e+20
1e+20 1e+20 1e+20 1e+20 1e+20 1e+20 1e+20 1e+20 1e+20 1e+20 1e+20 1e+20 1e+20 1e+20 1e+20 1e+20 1e+20 1e+20 1e+20 1125.16 1123.98 1122.47 1121.25 1119.95 1119.1 1118.26 1117.29 1115.46 1113.72 1112.82 1111.79 1110.55 1109.69 1108.38 1107.09 1106.74 1105.52 1104.95 1104.51 1104.18 1104.51 1105.16 1104.51 1104.89 1105.16 1106.02 1106.81 1107.14 1106.58 1106.33 1107.08 1106.37 1104.93 1103.92 1104.93 1105.24 1105.04 1106.06 1109.41 1112.48 1110.14 1108.99 1106.02 1097.01 1089.63 1085.25 1080.11 1073.49 1070.04 1070.45 1076.74 1084.77 1087.29 1089.9 1092.17 1090.41 1089.56 1090.27 1089.51 1089.15 1087.42 1084.21 1082.12 1083.06 1084.79 1085.59 1086.48 1088.05 1089.15 1091.13 1093.2 1094.07 1095.87 1098.21 1099.17 1099.44 1099.66 1096.67 1095.18 1094.92 1094.58 1093.54 1087.2 1084.79 1088.87 1085.88 1082.46 1080.09 1079.65 1080.23 1079.35 1074.95 1071.09 1069.21 1065.1 1062.87 1062.83 1062.93 1064.04 1066.99 1070.22 1072.63 1074.39 1076.38 1078.93 1081.39 1082.49 1083.96 1083.92 1083.5 1082.63 1082.39 1080.72 1078.0 1075.31 1074.87 1076.11 1078.15 1080.04 1081.42 1083.03 1084.77 1085.6 1086.42 1088.17 1090.16 1090.91 1092.77 1094.71 1096.15 1097.36 1099.05 1100.84 1102.71 1104.85 1107.11 1109.68 1112.4 1115.21 1117.51 1119.19 1119.33 1120.34 1120.24 1119.43 1118.33 1118.36 1118.67 1118.94 1119.7 1120.17 1119.96 1120.7 1121.44 1119.77 1119.93 1120.29 1121.5 1122.23 1121.62 1120.87 1120.39 1119.76 1119.37 1120.06 1120.6 1120.27 1120.14 1119.73 1118.93 1117.83 1116.59 1115.31 1113.97 1112.69 1111.39 1e+20 1e+20 1e+20 1e+20 1e+20 1e+20 1e+20 1e+20 1e+20 1e+20 1e+20 1e+20 1e+20 1e+20 1e+20 1e+20 1e+20 1e+20 1e+20 1e+20 1e+20 1e+20 1e+20 1e+20 1e+20 1e+20 1e+20 1e+20 1e+20 1e+20 1e+20 1e+20 1e+20 1e+20 1e+20 1e+20
1e+20 1e+20 1e+20 1e+20 1e+20 1e+20 1e+20 1e+20 1e+20 1e+20 1e+20 1e+20 1e+20 1e+20 1e+20 1e+20 1e+20 1e+20 1e+20 1126.04 1124.4 1123.45 1122.52 1120.9 1119.08 1118.01 1117.12 1116.0 1114.17 1112.67 1111.19 1110.59 1110.5 1109.52 1108.55 1107.72 1107.1 1106.55 1106.06 1106.03 1105.95 1105.75 1105.28 1105.5 1106.1 1107.04 1107.87 1107.88 1107.87 1107.75 1108.05 1107.36 1106.41 1106.54 1107.21 1107.11 1107.44 1108.51 1111.6 1109.97 1106.93 1103.69 1099.42 1093.13 1086.18 1080.61 1076.26 1071.86 1070.2 1073.12 1080.14 1084.56 1087.11 1090.59 1091.83 1091.64 1091.53 1091.53 1090.45 1089.35 1087.38 1084.37 1082.73 1084.06 1085.81 1087.06 1088.25 1089.54 1089.85 1091.37 1093.94 1093.54 1096.12 1099.26 1099.64 1101.26 1097.56 1093.0 1096.79 1098.25 1096.32 1088.49 1087.26 1082.01 1085.35 1083.22 1081.45 1079.68 1078.31 1078.22 1076.93 1073.91 1071.07 1067.58 1063.78 1061.93 1062.48 1063.32 1064.16 1067.41 1070.82 1073.54 1075.29 1077.06 1079.38 1082.0 1083.21 1085.28 1085.63 1085.28 1083.87 1083.83 1083.12 1080.94 1078.35 1077.04 1076.63 1078.33 1081.02 1083.31 1084.83 1086.34 1087.03 1087.62 1088.65 1090.61 1092.02 1093.37 1095.29 1096.69 1097.79 1099.8 1101.27 1103.06 1104.9 1107.33 1109.35 1111.61 1114.11 1116.74 1117.8 1118.88 1120.09 1120.89 1120.87 1120.3 1119.74 1119.97 1119.87 1120.44 1122.02 1122.45 1121.82 1121.31 1121.21 1121.81 1121.54 1122.33 1124.17 1123.11 1122.7 1123.03 1122.99 1122.69 1122.98 1122.74 1123.2 1123.63 1122.78 1121.31 1119.66 1117.98 1116.36 1114.81 1113.36 1111.95 1e+20 1e+20 1e+20 1e+20 1e+20 1e+20 1e+20 1e+20 1e+20 1e+20 1e+20 1e+20 1e+20 1e+20 1e+20 1e+20 1e+20 1e+20 1e+20 1e+20 1e+20 1e+20 1e+20 1e+20 1e+20 1e+20 1e+20 1e+20 1e+20 1e+20 1e+20 1e+20 1e+20 1e+20 1e+20 1e+20
1e+20 1e+20 1e+20 1e+20 1e+20 1e+20 1e+20 1e+20 1e+20 1e+20 1e+20 1e+20 1e+20 1e+20 1e+20 1e+20 1e+20 1e+20 1e+20 1124.76 1122.71 1122.38 1122.4 1121.74 1120.04 1118.3 1117.03 1116.51 1114.83 1113.24 1112.06 1111.86 1112.12 1110.97 1109.88 1108.48 1108.0 1107.53 1107.11 1107.22 1107.26 1106.71 1106.69 1106.39 1107.08 1108.02 1108.58 1107.96 1108.12 1108.49 1108.75 1108.08 1107.34 1108.22 1107.91 1107.88 1108.77 1109.25 1108.89 1105.27 1104.24 1099.89 1092.8 1088.38 1082.53 1075.77 1072.18 1071.91 1072.52 1080.7 1083.92 1084.62 1087.41 1090.26 1090.41 1091.55 1093.18 1093.13 1091.97 1090.42 1088.89 1085.37 1085.81 1086.22 1086.79 1088.02 1090.01 1091.66 1090.67 1090.7 1092.57 1092.96 1095.55 1098.41 1101.42 1104.71 1097.63 1096.97 1100.9 1097.63 1092.26 1083.56 1087.5 1085.14 1085.69 1083.98 1082.57 1080.2 1077.61 1076.33 1075.03 1072.08 1069.89 1066.48 1063.72 1062.63 1063.36 1063.91 1064.69 1067.54 1070.81 1073.54 1075.65 1077.43 1079.77 1082.1 1083.72 1085.45 1086.49 1087.09 1086.05 1085.59 1084.61 1082.77 1080.57 1079.39 1078.2 1079.1 1081.61 1083.9 1085.49 1086.94 1087.56 1088.29 1088.97 1090.99 1092.94 1094.52 1096.11 1097.52 1098.79 1100.4 1101.83 1103.82 1105.56 1107.7 1108.87 1110.47 1112.91 1115.68 1117.19 1117.94 1118.96 1120.27 1121.49 1122.39 1122.1 1122.39 1122.28 1122.95 1124.34 1125.77 1124.17 1122.1 1122.1 1122.63 1122.72 1123.18 1123.97 1124.0 1124.65 1125.3 1125.65 1125.64 1125.58 1125.38 1125.72 1126.04 1124.96 1123.08 1121.07 1119.09 1e+20 1e+20 1e+20 1e+20 1e+20 1e+20 1e+20 1e+20 1e+20 1e+20 1e+20 1e+20 1e+20 1e+20 1e+20 1e+20 1e+20 1e+20 1e+20 1e+20 1e+20 1e+20 1e+20 1e+20 1e+20 1e+20 1e+20 1e+20 1e+20 1e+20 1e+20 1e+20 1e+20 1e+20 1e+20 1e+20 1e+20 1e+20 1e+20 1e+20
1e+20 1e+20 1e+20 1e+20 1e+20 1e+20 1e+20 1e+20 1e+20 1e+20 1e+20 1e+20 1e+20 1e+20 1e+20 1e+20 1e+20 1e+20 1e+20 1124.64 1122.76 1121.44 1121.68 1121.73 1120.94 1118.63 1117.53 1116.91 1114.81 1113.8 1113.61 1113.37 1113.13 1112.16 1111.35 1110.37 1109.77 1109.14 1108.64 1108.15 1108.63 1108.38 1108.29 1107.76 1108.18 1108.67 1109.25 1108.93 1108.56 1108.74 1108.75 1108.4 1107.46 1107.68 1107.42 1107.49 1108.5 1108.72 1107.25 1104.78 1102.21 1096.46 1088.91 1084.03 1080.1 1073.42 1071.28 1073.38 1076.68 1083.85 1086.44 1087.09 1089.44 1091.1 1091.42 1092.94 1095.1 1094.68 1093.41 1090.96 1089.15 1087.3 1089.97 1088.93 1088.74 1088.92 1091.33 1093.12 1091.64 1091.1 1092.07 1093.26 1094.92 1096.84 1099.08 1100.77 1094.25 1098.58 1101.47 1097.78 1093.98 1090.13 1089.39 1087.2 1086.1 1085.0 1084.31 1081.41 1077.85 1075.09 1073.14 1071.07 1069.51 1066.3 1063.93 1063.49 1064.14 1065.01 1065.39 1068.38 1071.7 1073.73 1075.39 1077.77 1080.14 1082.3 1083.92 1085.34 1086.72 1087.96 1087.25 1086.5 1085.59 1084.0 1081.78 1079.77 1078.82 1079.46 1081.6 1084.0 1085.54 1086.77 1087.52 1088.7 1089.72 1091.66 1093.73 1095.47 1096.8 1098.16 1099.58 1101.15 1102.47 1104.01 1105.67 1107.69 1109.21 1110.27 1112.47 1114.8 1117.04 1118.15 1118.81 1119.55 1121.16 1122.49 1123.05 1123.87 1124.36 1125.21 1126.36 1127.75 1126.87 1124.3 1123.11 1123.81 1124.35 1124.41 1123.78 1123.5 1124.38 1125.97 1127.03 1127.52 1127.34 1127.01 1126.93 1126.69 1125.65 1123.9 1121.93 1e+20 1e+20 1e+20 1e+20 1e+20 1e+20 1e+20 1e+20 1e+20 1e+20 1e+20 1e+20 1e+20 1e+20 1e+20 1e+20 1e+20 1e+20 1e+20 1e+20 1e+20 1e+20 1e+20 1e+20 1e+20 1e+20 1e+20 1e+20 1e+20 1e+20 1e+20 1e+20 1e+20 1e+20 1e+20 1e+20 1e+20 1e+20 1e+20 1e+20 1e+20
1e+20 1e+20 1e+20 1e+20 1e+20 1e+20 1e+20 1e+20 1e+20 1e+20 1e+20 1e+20 1e+20 1e+20 1e+20 1e+20 1e+20 1e+20 1e+20 1125.73 1124.73 1123.61 1122.73 1122.07 1120.96 1119.61 1118.06 1116.82 1115.49 1114.69 1115.32 1114.92 1114.33 1113.4 1112.68 1112.06 1111.27 1111.14 1110.72 1109.99 1109.85 1109.68 1109.32 1109.18 1109.3 1109.3 1109.61 1109.76 1109.64 1109.68 1109.41 1109.85 1108.68 1107.48 1106.93 1107.2 1107.16 1106.38 1104.6 1101.66 1097.0 1090.91 1083.07 1076.33 1073.44 1070.83 1071.72 1075.15 1078.72 1082.7 1086.06 1089.99 1091.07 1091.35 1091.76 1093.22 1095.44 1096.02 1095.79 1092.64 1090.53 1089.76 1091.15 1091.45 1091.51 1092.01 1093.89 1094.48 1093.59 1092.42 1092.16 1093.92 1095.59 1096.56 1097.8 1097.68 1094.55 1102.27 1103.09 1096.36 1094.44 1093.67 1090.32 1087.92 1086.28 1084.83 1083.71 1081.89 1079.16 1075.91 1072.82 1069.99 1067.8 1065.92 1065.1 1065.43 1065.81 1066.78 1067.75 1070.71 1073.69 1075.12 1076.13 1078.13 1080.41 1082.42 1084.37 1085.67 1086.89 1088.4 1088.49 1087.9 1086.81 1084.97 1082.47 1079.77 1079.97 1079.85 1081.24 1083.72 1085.29 1086.62 1088.09 1089.58 1090.98 1092.46 1093.95 1095.52 1097.05 1098.86 1100.62 1101.98 1103.68 1104.35 1105.88 1108.02 1110.38 1111.37 1112.67 1114.07 1115.75 1117.7 1119.08 1119.47 1120.94 1122.18 1123.15 1124.52 1125.39 1126.12 1127.78 1129.49 1129.26 1126.96 1124.88 1125.16 1126.02 1126.63 1125.46 1124.63 1123.41 1124.1 1126.27 1127.88 1127.84 1127.47 1127.17 1126.67 1125.74 1124.24 1122.46 1e+20 1e+20 1e+20 1e+20 1e+20 1e+20 1e+20 1e+20 1e+20 1e+20 1e+20 1e+20 1e+20 1e+20 1e+20 1e+20 1e+20 1e+20 1e+20 1e+20 1e+20 1e+20 1e+20 1e+20 1e+20 1e+20 1e+20 1e+20 1e+20 1e+20 1e+20 1e+20 1e+20 1e+20 1e+20 1e+20 1e+20 1e+20 1e+20 1e+20 1e+20
1e+20 1e+20 1e+20 1e+20 1e+20 1e+20 1e+20 1e+20 1e+20 1e+20 1e+20 1e+20 1e+20 1e+20 1e+20 1e+20 1e+20 1e+20 1e+20 1127.91 1127.0 1126.42 1125.04 1123.55 1122.12 1120.97 1119.25 1117.87 1117.07 1116.53 1116.65 1116.15 1115.44 1114.78 1113.99 1113.28 1112.68 1112.71 1111.98 1111.22 1110.66 1110.32 1109.97 1109.81 1109.43 1109.27 1109.47 1109.84 1110.22 1110.86 1111.15 1110.66 1109.71 1108.07 1107.44 1107.18 1105.81 1103.69 1100.94 1096.77 1091.02 1085.02 1076.92 1071.3 1069.1 1069.35 1071.8 1076.51 1079.05 1081.52 1083.14 1087.38 1089.17 1090.1 1090.78 1092.67 1095.63 1096.72 1096.26 1093.55 1092.29 1091.87 1092.05 1092.64 1092.83 1094.23 1096.09 1096.53 1095.71 1094.14 1093.9 1096.0 1097.98 1098.79 1099.22 1099.33 1102.91 1110.02 1104.28 1095.59 1093.57 1092.74 1090.45 1088.14 1086.36 1084.5 1082.8 1081.7 1079.76 1076.85 1073.15 1069.48 1066.47 1065.53 1065.77 1067.09 1067.34 1067.75 1068.98 1071.54 1074.21 1076.34 1077.39 1078.91 1081.03 1082.95 1084.81 1086.21 1087.68 1089.03 1089.69 1089.51 1088.08 1086.22 1083.71 1081.45 1080.8 1079.92 1081.68 1084.26 1085.96 1087.52 1088.85 1089.9 1091.34 1092.98 1094.19 1095.81 1097.47 1099.17 1100.92 1102.0 1104.24 1104.84 1106.31 1108.78 1110.92 1112.29 1113.62 1114.54 1115.69 1117.07 1118.47 1119.73 1121.27 1122.37 1123.12 1124.84 1125.67 1126.17 1128.07 1129.79 1130.83 1128.83 1128.76 1128.02 1127.61 1127.19 1125.92 1124.5 1122.94 1122.58 1124.66 1126.44 1127.03 1127.03 1126.85 1e+20 1e+20 1e+20 1e+20 1e+20 1e+20 1e+20 1e+20 1e+20 1e+20 1e+20 1e+20 1e+20 1e+20 1e+20 1e+20 1e+20 1e+20 1e+20 1e+20 1e+20 1e+20 1e+20 1e+20 1e+20 1e+20 1e+20 1e+20 1e+20 1e+20 1e+20 1e+20 1e+20 1e+20 1e+20 1e+20 1e+20 1e+20 1e+20 1e+20 1e+20 1e+20 1e+20 1e+20 1e+20
1e+20 1e+20 1e+20 1e+20 1e+20 1e+20 1e+20 1e+20 1e+20 1e+20 1e+20 1e+20 1e+20 1e+20 1e+20 1e+20 1e+20 1e+20 1e+20 1129.09 1128.11 1127.3 1125.91 1124.59 1122.83 1121.6 1120.34 1119.31 1118.22 1117.42 1117.56 1117.32 1117.43 1117.65 1116.12 1114.75 1114.03 1113.15 1112.38 1111.7 1111.24 1110.8 1110.49 1109.7 1109.07 1108.94 1109.13 1109.59 1110.2 1111.06 1111.87 1110.48 1109.16 1108.4 1107.84 1105.94 1103.68 1100.75 1096.85 1092.41 1085.88 1078.26 1071.28 1068.74 1068.69 1070.65 1073.76 1076.65 1078.96 1082.15 1083.59 1085.97 1088.1 1090.17 1091.24 1093.61 1096.2 1096.98 1097.1 1095.33 1094.2 1093.28 1093.55 1094.47 1094.6 1096.19 1097.5 1095.45 1095.67 1095.99 1096.55 1098.12 1100.08 1101.75 1101.39 1102.22 1109.25 1107.75 1099.39 1091.7 1093.67 1093.61 1091.55 1088.84 1086.47 1084.75 1083.09 1081.43 1079.99 1077.13 1073.41 1069.69 1066.67 1065.34 1065.57 1065.51 1067.08 1068.91 1070.3 1072.39 1074.96 1077.0 1078.39 1079.68 1081.45 1083.38 1084.95 1086.53 1088.49 1089.94 1090.33 1090.31 1089.49 1087.87 1085.22 1082.9 1081.52 1081.0 1081.85 1084.02 1085.78 1087.81 1089.19 1090.36 1092.1 1093.42 1094.96 1096.29 1097.54 1099.36 1101.75 1103.23 1104.4 1105.02 1106.95 1108.77 1111.03 1112.53 1114.14 1115.11 1116.24 1117.1 1118.29 1120.0 1121.63 1123.49 1124.44 1125.26 1126.9 1128.12 1128.49 1128.77 1129.88 1130.91 1132.26 1129.91 1128.26 1127.1 1125.81 1124.45 1123.2 1122.88 1124.0 1125.3 1126.04 1126.34 1126.44 1e+20 1e+20 1e+20 1e+20 1e+20 1e+20 1e+20 1e+20 1e+20 1e+20 1e+20 1e+20 1e+20 1e+20 1e+20 1e+20 1e+20 1e+20 1e+20 1e+20 1e+20 1e+20 1e+20 1e+20 1e+20 1e+20 1e+20 1e+20 1e+20 1e+20 1e+20 1e+20 1e+20 1e+20 1e+20 1e+20 1e+20 1e+20 1e+20 1e+20 1e+20 1e+20 1e+20 1e+20 1e+20
1e+20 1e+20 1e+20 1e+20 1e+20 1e+20 1e+20 1e+20 1e+20 1e+20 1e+20 1e+20 1e+20 1e+20 1e+20 1e+20 1e+20 1e+20 1e+20 1129.78 1128.98 1128.15 1126.79 1125.63 1123.75 1122.25 1121.23 1120.18 1119.11 1118.5 1118.16 1117.8 1118.12 1118.45 1117.66 1116.16 1115.73 1113.61 1112.71 1112.15 1111.81 1111.26 1110.57 1109.49 1109.1 1108.85 1108.78 1109.1 1110.06 1110.9 1112.38 1111.94 1108.47 1106.71 1105.43 1103.17 1100.92 1096.91 1092.1 1087.95 1082.19 1074.25 1069.91 1069.58 1071.68 1076.68 1076.72 1078.6 1082.39 1083.83 1084.93 1086.54 1088.87 1091.48 1093.79 1096.73 1098.27 1097.86 1097.74 1096.71 1096.03 1095.54 1095.27 1096.16 1096.39 1097.53 1098.12 1097.04 1096.94 1096.83 1097.53 1099.18 1100.95 1102.96 1103.99 1106.71 1111.06 1104.38 1095.92 1095.95 1098.81 1096.58 1093.36 1090.0 1087.27 1085.26 1083.46 1081.25 1079.23 1076.87 1073.79 1070.99 1068.39 1065.91 1064.9 1064.26 1066.88 1068.53 1070.26 1073.15 1076.06 1078.12 1079.79 1081.61 1083.08 1084.61 1086.13 1087.26 1088.89 1089.92 1090.61 1090.87 1090.59 1089.28 1087.04 1084.28 1082.44 1081.28 1081.74 1083.65 1085.91 1087.94 1089.2 1090.48 1092.11 1093.73 1095.56 1096.85 1097.82 1099.14 1101.67 1103.51 1104.47 1105.55 1106.89 1107.78 1110.89 1112.47 1114.41 1115.34 1116.85 1118.33 1119.53 1120.92 1121.96 1123.31 1124.78 1125.56 1127.65 1130.03 1131.06 1131.06 1129.95 1129.59 1129.39 1128.26 1127.17 1126.3 1125.38 1124.42 1123.58 1123.34 1123.85 1124.64 1125.28 1e+20 1e+20 1e+20 1e+20 1e+20 1e+20 1e+20 1e+20 1e+20 1e+20 1e+20 1e+20 1e+20 1e+20 1e+20 1e+20 1e+20 1e+20 1e+20 1e+20 1e+20 1e+20 1e+20 1e+20 1e+20 1e+20 1e+20 1e+20 1e+20 1e+20 1e+20 1e+20 1e+20 1e+20 1e+20 1e+20 1e+20 1e+20 1e+20 1e+20 1e+20 1e+20 1e+20 1e+20 1e+20 1e+20 1e+20
1e+20 1e+20 1e+20 1e+20 1e+20 1e+20 1e+20 1e+20 1e+20 1e+20 1e+20 1e+20 1e+20 1e+20 1e+20 1e+20 1e+20 1e+20 1e+20 1130.36 1129.63 1128.83 1127.65 1126.41 1125.34 1123.03 1121.49 1120.3 1119.34 1118.64 1118.32 1118.37 1118.16 1118.19 1117.99 1116.86 1116.87 1115.15 1113.42 1112.52 1112.19 1111.62 1110.83 1109.74 1108.85 1108.78 1108.55 1108.77 1109.98 1112.01 1114.51 1115.85 1110.13 1105.87 1102.69 1100.65 1098.03 1093.45 1087.72 1083.39 1080.41 1074.12 1071.75 1072.75 1075.28 1079.39 1079.35 1081.94 1084.25 1084.81 1086.02 1087.96 1090.13 1092.48 1095.15 1097.31 1100.2 1099.91 1099.2 1098.25 1097.57 1097.46 1097.2 1097.77 1098.21 1098.42 1099.06 1099.09 1099.5 1098.33 1098.46 1099.78 1101.55 1103.83 1106.87 1110.83 1115.0 1104.72 1103.4 1103.13 1101.0 1098.31 1094.87 1091.35 1088.63 1085.76 1083.02 1080.12 1077.87 1075.51 1073.71 1072.13 1069.69 1067.01 1065.34 1063.75 1065.27 1067.22 1069.67 1073.71 1077.4 1079.98 1082.16 1084.45 1085.67 1087.21 1088.56 1089.09 1089.82 1090.17 1090.94 1091.53 1091.56 1090.22 1087.93 1085.16 1083.34 1081.82 1081.85 1083.8 1085.82 1088.25 1089.77 1091.06 1092.4 1094.16 1096.33 1097.72 1098.86 1100.21 1102.11 1103.66 1105.17 1106.18 1106.9 1107.85 1111.57 1111.92 1112.82 1114.25 1116.5 1118.45 1120.13 1121.09 1121.96 1122.79 1124.64 1126.16 1127.74 1129.88 1132.69 1134.85 1134.36 1130.72 1126.89 1126.01 1125.57 1125.28 1124.87 1e+20 1e+20 1e+20 1e+20 1e+20 1e+20 1e+20 1e+20 1e+20 1e+20 1e+20 1e+20 1e+20 1e+20 1e+20 1e+20 1e+20 1e+20 1e+20 1e+20 1e+20 1e+20 1e+20 1e+20 1e+20 1e+20 1e+20 1e+20 1e+20 1e+20 1e+20 1e+20 1e+20 1e+20 1e+20 1e+20 1e+20 1e+20 1e+20 1e+20 1e+20 1e+20 1e+20 1e+20 1e+20 1e+20 1e+20 1e+20 1e+20 1e+20 1e+20 1e+20 1e+20
1e+20 1e+20 1e+20 1e+20 1e+20 1e+20 1e+20 1e+20 1e+20 1e+20 1e+20 1e+20 1e+20 1e+20 1e+20 1e+20 1e+20 1e+20 1e+20 1131.12 1130.21 1129.15 1127.08 1125.72 1125.56 1122.95 1121.33 1120.25 1119.49 1118.91 1118.7 1118.96 1118.04 1118.27 1118.59 1117.84 1117.36 1116.43 1114.75 1113.54 1112.74 1111.6 1110.83 1109.57 1107.68 1108.06 1108.23 1108.73 1110.09 1112.39 1114.77 1114.16 1108.77 1105.21 1102.13 1099.03 1095.16 1089.46 1083.46 1078.44 1075.33 1072.0 1071.95 1073.08 1075.94 1079.14 1081.66 1085.26 1085.9 1085.99 1087.44 1089.67 1091.58 1093.36 1096.33 1098.28 1100.34 1100.66 1099.57 1099.05 1099.06 1099.53 1099.08 1099.02 1099.64 1099.76 1100.43 1101.56 1102.39 1101.1 1100.61 1101.4 1102.69 1106.49 1108.68 1111.53 1106.49 1100.27 1107.93 1106.13 1102.55 1099.17 1096.03 1092.65 1089.86 1086.63 1083.65 1080.63 1077.9 1075.73 1074.5 1072.97 1070.9 1068.56 1066.38 1064.41 1064.43 1065.72 1068.85 1073.12 1077.53 1081.11 1084.13 1086.87 1088.1 1089.73 1091.24 1091.75 1092.08 1092.14 1092.47 1092.68 1092.22 1091.16 1089.29 1086.76 1084.67 1083.1 1082.89 1084.02 1085.41 1087.85 1090.11 1092.23 1093.48 1094.8 1096.86 1097.96 1099.24 1100.76 1102.42 1103.98 1105.35 1106.55 1107.48 1108.68 1110.65 1111.31 1111.97 1113.57 1116.18 1118.43 1120.08 1121.47 1122.57 1123.79 1125.58 1127.12 1128.38 1129.73 1132.66 1135.67 1135.85 1131.75 1127.33 1124.87 1124.6 1124.66 1124.58 1e+20 1e+20 1e+20 1e+20 1e+20 1e+20 1e+20 1e+20 1e+20 1e+20 1e+20 1e+20 1e+20 1e+20 1e+20 1e+20 1e+20 1e+20 1e+20 1e+20 1e+20 1e+20 1e+20 1e+20 1e+20 1e+20 1e+20 1e+20 1e+20 1e+20 1e+20 1e+20 1e+20 1e+20 1e+20 1e+20 1e+20 1e+20 1e+20 1e+20 1e+20 1e+20 1e+20 1e+20 1e+20 1e+20 1e+20 1e+20 1e+20 1e+20 1e+20 1e+20 1e+20
1e+20 1e+20 1e+20 1e+20 1e+20 1e+20 1e+20 1e+20 1e+20 1e+20 1e+20 1e+20 1e+20 1e+20 1e+20 1e+20 1e+20 1e+20 1e+20 1132.42 1131.4 1130.69 1128.32 1126.6 1125.33 1123.51 1121.98 1120.99 1119.75 1118.96 1118.41 1118.26 1117.59 1118.19 1118.05 1117.44 1116.59 1116.05 1115.14 1114.12 1113.06 1111.36 1110.17 1108.7 1106.53 1106.99 1107.98 1108.49 1109.89 1111.7 1113.3 1111.15 1106.7 1104.54 1101.55 1097.76 1092.67 1086.01 1080.36 1075.53 1072.27 1071.75 1072.98 1073.18 1075.63 1078.19 1081.35 1084.64 1085.01 1085.6 1087.71 1090.49 1092.84 1094.82 1097.03 1098.21 1099.31 1099.98 1099.12 1099.12 1100.61 1102.29 1102.12 1102.48 1102.58 1102.29 1102.88 1103.81 1104.29 1103.44 1102.96 1103.8 1105.62 1110.63 1111.43 1113.06 1102.52 1105.44 1108.9 1106.15 1103.26 1100.45 1097.54 1094.13 1090.76 1087.42 1084.65 1081.99 1079.4 1077.94 1076.4 1074.46 1072.33 1070.05 1068.34 1066.71 1066.03 1065.41 1067.8 1072.04 1077.28 1081.87 1085.67 1089.69 1090.63 1091.57 1093.75 1094.36 1094.55 1094.4 1094.4 1093.92 1092.84 1091.9 1090.21 1088.12 1086.02 1084.41 1084.07 1084.86 1086.17 1087.6 1089.56 1091.94 1093.94 1095.39 1096.56 1097.48 1099.0 1100.78 1102.52 1104.1 1105.55 1106.96 1108.37 1109.13 1110.87 1113.47 1113.76 1114.38 1116.54 1118.49 1119.38 1120.24 1122.26 1124.27 1125.99 1127.28 1128.19 1129.38 1131.05 1133.58 1133.89 1131.34 1128.05 1125.78 1124.98 1124.78 1124.64 1e+20 1e+20 1e+20 1e+20 1e+20 1e+20 1e+20 1e+20 1e+20 1e+20 1e+20 1e+20 1e+20 1e+20 1e+20 1e+20 1e+20 1e+20 1e+20 1e+20 1e+20 1e+20 1e+20 1e+20 1e+20 1e+20 1e+20 1e+20 1e+20 1e+20 1e+20 1e+20 1e+20 1e+20 1e+20 1e+20 1e+20 1e+20 1e+20 1e+20 1e+20 1e+20 1e+20 1e+20 1e+20 1e+20 1e+20 1e+20 1e+20 1e+20 1e+20 1e+20 1e+20
1e+20 1e+20 1e+20 1e+20 1e+20 1e+20 1e+20 1e+20 1e+20 1e+20 1e+20 1e+20 1e+20 1e+20 1e+20 1e+20 1e+20 1e+20 1e+20 1e+20 1133.8 1132.52 1129.61 1127.29 1125.04 1123.82 1122.64 1121.64 1120.01 1119.34 1118.44 1118.15 1117.53 1117.6 1117.24 1117.1 1115.7 1115.12 1114.36 1113.39 1112.41 1111.11 1109.43 1107.72 1105.81 1105.88 1107.65 1107.53 1109.03 1110.24 1110.39 1108.06 1104.86 1103.29 1100.11 1096.26 1090.23 1083.58 1077.43 1073.17 1071.09 1071.64 1074.79 1075.35 1076.91 1078.67 1080.69 1082.6 1083.92 1085.49 1087.72 1090.14 1092.96 1095.55 1097.21 1097.69 1098.66 1100.18 1101.17 1100.76 1102.25 1103.92 1104.83 1106.39 1105.96 1104.9 1104.8 1105.18 1105.88 1105.99 1105.94 1106.25 1107.47 1109.96 1111.14 1114.8 1109.03 1109.98 1109.63 1107.08 1104.22 1101.88 1099.02 1095.46 1091.68 1088.38 1085.81 1083.95 1082.55 1081.05 1079.23 1077.08 1074.85 1072.63 1070.27 1068.72 1069.86 1069.11 1068.76 1071.57 1076.45 1081.27 1085.88 1092.82 1095.67 1093.63 1094.83 1096.23 1096.29 1096.47 1096.08 1095.26 1094.05 1092.79 1091.18 1089.19 1087.39 1085.65 1084.99 1085.41 1086.75 1087.26 1088.84 1091.07 1093.24 1095.06 1095.69 1097.21 1099.03 1100.55 1102.02 1103.69 1105.34 1106.71 1108.15 1108.56 1110.19 1113.06 1114.46 1115.16 1116.07 1117.53 1118.75 1119.35 1121.71 1124.35 1126.14 1127.26 1127.99 1128.61 1128.56 1130.72 1131.52 1130.41 1e+20 1e+20 1e+20 1e+20 1e+20 1e+20 1e+20 1e+20 1e+20 1e+20 1e+20 1e+20 1e+20 1e+20 1e+20 1e+20 1e+20 1e+20 1e+20 1e+20 1e+20 1e+20 1e+20 1e+20 1e+20 1e+20 1e+20 1e+20 1e+20 1e+20 1e+20 1e+20 1e+20 1e+20 1e+20 1e+20 1e+20 1e+20 1e+20 1e+20 1e+20 1e+20 1e+20 1e+20 1e+20 1e+20 1e+20 1e+20 1e+20 1e+20 1e+20 1e+20 1e+20 1e+20 1e+20 1e+20 1e+20 1e+20
1e+20 1e+20 1e+20 1e+20 1e+20 1e+20 1e+20 1e+20 1e+20 1e+20 1e+20 1e+20 1e+20 1e+20 1e+20 1e+20 1e+20 1e+20 1e+20 1e+20 1136.06 1135.12 1131.72 1127.1 1123.64 1122.69 1122.54 1122.14 1120.66 1119.23 1118.03 1117.72 1117.05 1117.03 1116.73 1116.32 1114.02 1114.19 1113.59 1112.4 1111.62 1110.11 1108.51 1107.05 1104.98 1104.09 1106.14 1107.37 1108.95 1110.21 1110.39 1106.57 1103.76 1101.67 1098.09 1094.68 1088.17 1081.92 1075.87 1071.81 1071.02 1072.81 1076.1 1077.02 1077.96 1079.5 1080.62 1081.9 1083.61 1085.46 1087.61 1090.02 1092.68 1095.45 1096.71 1097.48 1099.43 1102.17 1105.14 1104.68 1105.15 1105.96 1106.77 1108.41 1108.7 1107.79 1106.8 1106.35 1107.2 1108.17 1108.61 1108.43 1108.77 1109.96 1112.23 1113.3 1110.46 1109.83 1109.26 1107.59 1105.21 1103.16 1100.61 1096.87 1093.16 1089.66 1086.96 1085.78 1085.28 1083.89 1082.19 1079.5 1076.38 1073.81 1071.64 1070.58 1071.44 1072.29 1072.03 1073.92 1076.97 1080.95 1089.8 1104.37 1110.05 1102.77 1098.81 1099.12 1099.43 1098.43 1097.53 1096.54 1095.64 1094.42 1092.77 1090.9 1089.22 1087.51 1086.18 1085.59 1086.17 1087.09 1088.52 1090.14 1092.18 1094.46 1095.77 1096.84 1098.29 1099.88 1101.45 1103.19 1105.04 1106.28 1108.33 1108.04 1108.24 1110.04 1112.61 1114.43 1114.44 1115.39 1116.7 1118.36 1120.98 1123.78 1125.83 1126.93 1127.58 1127.97 1128.17 1129.36 1130.05 1129.69 1e+20 1e+20 1e+20 1e+20 1e+20 1e+20 1e+20 1e+20 1e+20 1e+20 1e+20 1e+20 1e+20 1e+20 1e+20 1e+20 1e+20 1e+20 1e+20 1e+20 1e+20 1e+20 1e+20 1e+20 1e+20 1e+20 1e+20 1e+20 1e+20 1e+20 1e+20 1e+20 1e+20 1e+20 1e+20 1e+20 1e+20 1e+20 1e+20 1e+20 1e+20 1e+20 1e+20 1e+20 1e+20 1e+20 1e+20 1e+20 1e+20 1e+20 1e+20 1e+20 1e+20 1e+20 1e+20 1e+20 1e+20 1e+20
1e+20 1e+20 1e+20 1e+20 1e+20 1e+20 1e+20 1e+20 1e+20 1e+20 1e+20 1e+20 1e+20 1e+20 1e+20 1e+20 1e+20 1e+20 1e+20 1e+20 1135.89 1133.95 1131.21 1125.58 1122.61 1121.13 1120.55 1120.32 1120.06 1118.91 1118.0 1117.33 1115.79 1115.34 1115.34 1114.45 1113.31 1113.12 1112.47 1112.01 1111.26 1109.44 1107.93 1106.7 1104.75 1104.17 1105.47 1107.08 1108.56 1109.88 1110.56 1106.6 1103.08 1100.27 1096.8 1093.05 1086.76 1080.12 1074.79 1071.6 1071.51 1073.54 1077.83 1079.39 1080.27 1081.33 1081.1 1081.48 1083.12 1085.28 1088.0 1090.31 1092.39 1095.5 1097.17 1099.63 1100.87 1103.51 1105.79 1106.46 1107.28 1108.14 1108.49 1109.37 1110.19 1109.48 1108.67 1108.35 1108.81 1109.72 1110.05 1110.23 1109.64 1110.66 1111.93 1112.26 1110.99 1109.89 1108.93 1107.85 1106.28 1104.38 1102.29 1098.86 1095.32 1091.93 1089.04 1087.52 1087.15 1085.73 1084.42 1081.44 1077.76 1074.13 1071.81 1070.74 1071.27 1072.43 1073.41 1076.09 1078.11 1081.39 1093.98 1120.79 1124.59 1110.73 1100.94 1101.39 1103.23 1101.96 1099.81 1097.97 1096.77 1095.72 1094.28 1092.45 1091.02 1089.58 1088.19 1086.97 1086.25 1086.77 1088.0 1089.22 1090.9 1093.24 1095.45 1096.03 1097.61 1099.28 1101.19 1103.44 1105.31 1106.26 1108.4 1107.99 1108.2 1108.67 1110.68 1112.51 1113.23 1113.55 1114.8 1117.2 1120.02 1122.78 1124.9 1126.26 1127.08 1127.61 1128.05 1128.8 1129.33 1129.3 1e+20 1e+20 1e+20 1e+20 1e+20 1e+20 1e+20 1e+20 1e+20 1e+20 1e+20 1e+20 1e+20 1e+20 1e+20 1e+20 1e+20 1e+20 1e+20 1e+20 1e+20 1e+20 1e+20 1e+20 1e+20 1e+20 1e+20 1e+20 1e+20 1e+20 1e+20 1e+20 1e+20 1e+20 1e+20 1e+20 1e+20 1e+20 1e+20 1e+20 1e+20 1e+20 1e+20 1e+20 1e+20 1e+20 1e+20 1e+20 1e+20 1e+20 1e+20 1e+20 1e+20 1e+20 1e+20 1e+20 1e+20 1e+20
1e+20 1e+20 1e+20 1e+20 1e+20 1e+20 1e+20 1e+20 1e+20 1e+20 1e+20 1e+20 1e+20 1e+20 1e+20 1e+20 1e+20 1e+20 1e+20 1e+20 1132.73 1130.29 1129.79 1124.2 1122.09 1121.32 1119.64 1118.66 1118.99 1118.26 1117.39 1116.24 1114.71 1113.73 1114.41 1113.5 1112.76 1112.5 1111.79 1111.47 1110.56 1108.53 1107.07 1106.08 1104.6 1103.85 1104.1 1105.79 1107.3 1108.65 1107.91 1105.08 1102.18 1098.55 1094.8 1090.56 1084.99 1078.35 1074.4 1072.79 1073.15 1075.75 1079.39 1081.54 1082.69 1082.3 1081.52 1081.03 1082.27 1084.61 1087.47 1089.72 1091.04 1093.91 1097.16 1102.16 1102.38 1104.18 1106.23 1108.27 1109.64 1110.91 1111.39 1111.91 1112.63 1110.77 1110.25 1110.25 1110.33 1110.86 1111.18 1111.55 1111.85 1112.22 1113.18 1113.1 1112.13 1111.14 1109.94 1108.87 1107.48 1106.2 1104.29 1101.0 1097.52 1094.26 1091.62 1089.52 1088.31 1086.71 1085.33 1083.03 1079.53 1075.36 1072.36 1071.86 1071.52 1072.3 1072.93 1076.19 1079.86 1085.22 1100.19 1129.89 1140.35 1123.23 1107.09 1104.22 1104.97 1104.19 1102.12 1100.18 1098.45 1097.09 1095.47 1093.54 1092.3 1090.84 1090.15 1089.4 1088.38 1087.91 1089.02 1089.71 1091.04 1092.78 1093.95 1095.02 1096.55 1098.43 1100.39 1103.03 1104.7 1105.84 1107.96 1108.8 1108.01 1107.72 1109.46 1111.14 1112.18 1112.97 1114.37 1116.65 1119.28 1121.86 1123.98 1125.53 1126.62 1127.38 1e+20 1e+20 1e+20 1e+20 1e+20 1e+20 1e+20 1e+20 1e+20 1e+20 1e+20 1e+20 1e+20 1e+20 1e+20 1e+20 1e+20 1e+20 1e+20 1e+20 1e+20 1e+20 1e+20 1e+20 1e+20 1e+20 1e+20 1e+20 1e+20 1e+20 1e+20 1e+20 1e+20 1e+20 1e+20 1e+20 1e+20 1e+20 1e+20 1e+20 1e+20 1e+20 1e+20 1e+20 1e+20 1e+20 1e+20 1e+20 1e+20 1e+20 1e+20 1e+20 1e+20 1e+20 1e+20 1e+20 1e+20 1e+20 1e+20 1e+20 1e+20 1e+20
1e+20 1e+20 1e+20 1e+20 1e+20 1e+20 1e+20 1e+20 1e+20 1e+20 1e+20 1e+20 1e+20 1e+20 1e+20 1e+20 1e+20 1e+20 1e+20 1e+20 1128.78 1126.59 1125.68 1121.06 1119.99 1121.12 1120.61 1119.67 1118.42 1116.89 1116.17 1115.25 1113.92 1113.02 1113.15 1112.3 1112.1 1111.49 1110.49 1109.6 1108.43 1106.76 1106.04 1105.04 1103.54 1102.58 1102.28 1103.59 1105.44 1106.66 1105.5 1103.65 1100.84 1096.54 1092.78 1088.27 1082.62 1077.11 1074.25 1074.25 1074.3 1077.82 1080.77 1082.95 1085.44 1084.74 1083.98 1082.89 1082.41 1083.77 1087.01 1090.05 1092.04 1093.32 1095.3 1100.86 1103.14 1104.85 1107.11 1109.18 1111.2 1113.0 1113.47 1113.83 1114.45 1113.02 1112.26 1112.2 1111.99 1112.22 1112.72 1113.27 1114.6 1114.86 1114.92 1114.46 1113.69 1112.79 1111.15 1109.81 1108.57 1107.64 1105.32 1102.31 1099.26 1096.19 1093.16 1090.58 1088.67 1087.05 1085.4 1083.1 1080.09 1076.13 1073.26 1071.85 1071.16 1072.35 1073.38 1076.14 1079.33 1082.3 1092.17 1116.89 1135.3 1126.4 1112.8 1108.24 1107.26 1105.76 1103.59 1102.17 1100.33 1098.62 1096.93 1094.96 1093.01 1091.26 1090.82 1090.86 1090.76 1090.05 1090.31 1090.66 1091.04 1092.16 1092.66 1094.01 1095.72 1097.91 1100.0 1102.71 1104.37 1105.98 1108.33 1110.67 1110.82 1109.58 1109.9 1110.84 1111.81 1112.85 1114.33 1116.4 1118.75 1121.13 1e+20 1e+20 1e+20 1e+20 1e+20 1e+20 1e+20 1e+20 1e+20 1e+20 1e+20 1e+20 1e+20 1e+20 1e+20 1e+20 1e+20 1e+20 1e+20 1e+20 1e+20 1e+20 1e+20 1e+20 1e+20 1e+20 1e+20 1e+20 1e+20 1e+20 1e+20 1e+20 1e+20 1e+20 1e+20 1e+20 1e+20 1e+20 1e+20 1e+20 1e+20 1e+20 1e+20 1e+20 1e+20 1e+20 1e+20 1e+20 1e+20 1e+20 1e+20 1e+20 1e+20 1e+20 1e+20 1e+20 1e+20 1e+20 1e+20 1e+20 1e+20 1e+20 1e+20 1e+20 1e+20 1e+20
1e+20 1e+20 1e+20 1e+20 1e+20 1e+20 1e+20 1e+20 1e+20 1e+20 1e+20 1e+20 1e+20 1e+20 1e+20 1e+20 1e+20 1e+20 1e+20 1e+20 1125.27 1122.25 1120.23 1118.85 1116.97 1116.88 1119.49 1119.72 1116.89 1115.93 1115.28 1114.61 1113.3 1112.24 1112.17 1111.85 1111.46 1109.53 1108.53 1107.52 1107.03 1106.18 1105.43 1104.26 1102.87 1101.03 1100.21 1101.7 1103.65 1104.46 1104.18 1102.98 1100.41 1096.44 1092.47 1088.19 1082.44 1076.33 1073.5 1073.6 1074.68 1080.44 1082.93 1084.41 1086.66 1086.65 1086.59 1085.76 1084.55 1083.94 1086.15 1090.14 1092.92 1094.38 1096.46 1100.92 1103.44 1105.45 1107.81 1109.74 1112.27 1114.64 1115.45 1116.27 1116.56 1115.4 1114.73 1114.5 1113.57 1113.32 1113.9 1114.61 1115.91 1116.45 1115.36 1115.25 1114.27 1114.44 1112.43 1111.17 1109.5 1108.33 1106.09 1103.25 1100.7 1097.65 1093.9 1091.09 1089.09 1087.05 1085.11 1082.58 1079.26 1075.48 1073.0 1070.76 1070.87 1072.4 1074.14 1076.42 1079.79 1082.6 1093.48 1110.48 1127.45 1127.82 1115.28 1110.93 1108.65 1107.13 1104.75 1103.35 1101.74 1100.2 1098.34 1096.15 1094.47 1093.06 1092.2 1092.23 1092.31 1092.22 1092.57 1094.0 1093.14 1093.59 1094.0 1094.51 1095.17 1097.47 1099.85 1102.66 1104.33 1106.17 1107.06 1107.94 1109.58 1109.87 1110.25 1110.92 1111.78 1e+20 1e+20 1e+20 1e+20 1e+20 1e+20 1e+20 1e+20 1e+20 1e+20 1e+20 1e+20 1e+20 1e+20 1e+20 1e+20 1e+20 1e+20 1e+20 1e+20 1e+20 1e+20 1e+20 1e+20 1e+20 1e+20 1e+20 1e+20 1e+20 1e+20 1e+20 1e+20 1e+20 1e+20 1e+20 1e+20 1e+20 1e+20 1e+20 1e+20 1e+20 1e+20 1e+20 1e+20 1e+20 1e+20 1e+20 1e+20 1e+20 1e+20 1e+20 1e+20 1e+20 1e+20 1e+20 1e+20 1e+20 1e+20 1e+20 1e+20 1e+20 1e+20 1e+20 1e+20 1e+20 1e+20 1e+20 1e+20 1e+20 1e+20 1e+20
1e+20 1e+20 1e+20 1e+20 1e+20 1e+20 1e+20 1e+20 1e+20 1e+20 1e+20 1e+20 1e+20 1e+20 1e+20 1e+20 1e+20 1e+20 1e+20 1e+20 1124.06 1122.95 1122.44 1122.07 1118.78 1118.26 1118.76 1117.53 1115.88 1115.25 1114.69 1114.4 1113.23 1111.78 1111.34 1111.35 1110.38 1108.89 1107.36 1106.14 1105.8 1105.49 1104.73 1103.5 1102.59 1100.31 1098.89 1100.06 1101.87 1102.91 1103.13 1102.27 1099.67 1096.21 1092.23 1087.5 1082.7 1076.25 1074.29 1075.58 1079.45 1083.96 1085.81 1086.96 1087.97 1087.99 1088.52 1088.42 1087.68 1085.94 1086.99 1090.52 1092.54 1094.6 1096.61 1100.09 1103.28 1105.58 1108.19 1110.11 1112.67 1115.06 1116.71 1118.04 1117.92 1117.24 1117.16 1117.23 1116.46 1114.92 1115.11 1116.02 1116.79 1116.92 1117.05 1117.09 1115.69 1114.63 1112.71 1112.63 1110.92 1109.52 1107.5 1104.8 1102.31 1099.29 1095.16 1091.33 1088.79 1086.37 1084.22 1081.28 1077.52 1073.85 1072.19 1070.74 1070.98 1072.64 1074.9 1076.71 1080.78 1086.95 1101.05 1113.81 1125.18 1131.61 1120.35 1114.26 1110.2 1109.23 1105.96 1104.37 1103.12 1101.74 1099.68 1097.48 1096.03 1094.78 1094.16 1094.04 1094.38 1093.72 1094.78 1095.2 1094.59 1094.99 1096.13 1097.08 1097.09 1098.03 1099.61 1101.34 1104.0 1107.54 1108.44 1108.12 1109.4 1110.08 1110.54 1111.07 1e+20 1e+20 1e+20 1e+20 1e+20 1e+20 1e+20 1e+20 1e+20 1e+20 1e+20 1e+20 1e+20 1e+20 1e+20 1e+20 1e+20 1e+20 1e+20 1e+20 1e+20 1e+20 1e+20 1e+20 1e+20 1e+20 1e+20 1e+20 1e+20 1e+20 1e+20 1e+20 1e+20 1e+20 1e+20 1e+20 1e+20 1e+20 1e+20 1e+20 1e+20 1e+20 1e+20 1e+20 1e+20 1e+20 1e+20 1e+20 1e+20 1e+20 1e+20 1e+20 1e+20 1e+20 1e+20 1e+20 1e+20 1e+20 1e+20 1e+20 1e+20 1e+20 1e+20 1e+20 1e+20 1e+20 1e+20 1e+20 1e+20 1e+20 1e+20 1e+20
1e+20 1e+20 1e+20 1e+20 1e+20 1e+20 1e+20 1e+20 1e+20 1e+20 1e+20 1e+20 1e+20 1e+20 1e+20 1e+20 1e+20 1e+20 1e+20 1e+20 1121.56 1122.18 1121.55 1122.51 1119.69 1118.25 1117.73 1115.11 1114.92 1114.97 1113.96 1114.0 1112.48 1110.35 1109.28 1109.6 1109.3 1107.75 1106.01 1104.54 1104.23 1103.73 1102.94 1101.83 1100.8 1098.49 1097.18 1097.8 1099.51 1100.73 1101.98 1101.57 1098.4 1095.42 1091.81 1085.62 1080.69 1076.07 1075.14 1077.94 1084.13 1086.98 1088.82 1090.46 1091.12 1090.53 1090.78 1091.02 1090.33 1088.37 1087.37 1089.05 1092.0 1094.76 1097.32 1100.08 1103.28 1106.27 1108.79 1110.95 1112.83 1115.43 1117.61 1118.67 1119.06 1119.55 1120.23 1120.36 1120.23 1118.04 1117.35 1118.0 1118.31 1117.98 1118.14 1117.78 1116.44 1115.15 1113.85 1112.81 1111.58 1110.16 1108.02 1105.53 1103.11 1100.23 1095.97 1091.52 1087.96 1084.94 1082.44 1079.92 1076.72 1073.51 1072.14 1071.32 1071.26 1072.71 1076.69 1077.88 1080.81 1085.14 1095.85 1107.14 1111.87 1117.71 1116.59 1114.41 1111.16 1108.74 1105.07 1103.74 1103.47 1102.96 1101.08 1098.88 1097.68 1096.57 1095.97 1095.44 1095.51 1095.57 1097.36 1096.58 1096.67 1096.25 1097.07 1098.78 1098.65 1098.87 1099.21 1099.01 1101.06 1106.26 1109.86 1110.34 1110.51 1110.64 1110.85 1e+20 1e+20 1e+20 1e+20 1e+20 1e+20 1e+20 1e+20 1e+20 1e+20 1e+20 1e+20 1e+20 1e+20 1e+20 1e+20 1e+20 1e+20 1e+20 1e+20 1e+20 1e+20 1e+20 1e+20 1e+20 1e+20 1e+20 1e+20 1e+20 1e+20 1e+20 1e+20 1e+20 1e+20 1e+20 1e+20 1e+20 1e+20 1e+20 1e+20 1e+20 1e+20 1e+20 1e+20 1e+20 1e+20 1e+20 1e+20 1e+20 1e+20 1e+20 1e+20 1e+20 1e+20 1e+20 1e+20 1e+20 1e+20 1e+20 1e+20 1e+20 1e+20 1e+20 1e+20 1e+20 1e+20 1e+20 1e+20 1e+20 1e+20 1e+20 1e+20 1e+20
1e+20 1e+20 1e+20 1e+20 1e+20 1e+20 1e+20 1e+20 1e+20 1e+20 1e+20 1e+20 1e+20 1e+20 1e+20 1e+20 1e+20 1e+20 1e+20 1e+20 1117.7 1118.15 1118.8 1122.05 1117.88 1117.05 1117.57 1113.91 1114.33 1115.06 1112.74 1112.21 1111.01 1108.26 1107.21 1107.51 1107.25 1105.57 1104.12 1102.48 1101.77 1101.69 1101.64 1100.14 1099.71 1097.98 1095.76 1095.4 1096.41 1097.85 1100.3 1100.23 1098.09 1094.67 1090.94 1085.21 1080.0 1076.77 1076.0 1078.47 1084.85 1087.24 1089.95 1092.35 1092.49 1092.09 1092.54 1093.49 1093.73 1092.5 1089.92 1088.85 1091.52 1094.44 1097.94 1100.57 1103.63 1106.69 1109.0 1111.27 1112.67 1115.69 1118.5 1119.64 1120.93 1122.16 1123.7 1123.64 1122.39 1120.59 1120.01 1119.72 1120.27 1119.83 1119.09 1118.16 1117.15 1115.63 1114.6 1113.31 1112.11 1110.58 1108.09 1106.06 1103.82 1100.84 1096.54 1091.36 1086.74 1083.31 1080.98 1078.24 1075.62 1073.19 1072.05 1071.66 1071.59 1072.01 1074.86 1077.29 1080.44 1084.72 1091.4 1099.41 1104.34 1107.2 1109.91 1110.36 1109.54 1107.89 1105.25 1103.37 1102.89 1103.0 1101.75 1099.73 1098.56 1097.71 1097.78 1097.62 1097.69 1098.05 1099.12 1099.05 1099.76 1098.54 1097.6 1097.71 1098.98 1099.48 1099.09 1098.32 1099.12 1104.17 1108.49 1110.55 1e+20 1e+20 1e+20 1e+20 1e+20 1e+20 1e+20 1e+20 1e+20 1e+20 1e+20 1e+20 1e+20 1e+20 1e+20 1e+20 1e+20 1e+20 1e+20 1e+20 1e+20 1e+20 1e+20 1e+20 1e+20 1e+20 1e+20 1e+20 1e+20 1e+20 1e+20 1e+20 1e+20 1e+20 1e+20 1e+20 1e+20 1e+20 1e+20 1e+20 1e+20 1e+20 1e+20 1e+20 1e+20 1e+20 1e+20 1e+20 1e+20 1e+20 1e+20 1e+20 1e+20 1e+20 1e+20 1e+20 1e+20 1e+20 1e+20 1e+20 1e+20 1e+20 1e+20 1e+20 1e+20 1e+20 1e+20 1e+20 1e+20 1e+20 1e+20 1e+20 1e+20 1e+20 1e+20 1e+20
1e+20 1e+20 1e+20 1e+20 1e+20 1e+20 1e+20 1e+20 1e+20 1e+20 1e+20 1e+20 1e+20 1e+20 1e+20 1e+20 1e+20 1e+20 1e+20 1e+20 1116.43 1115.5 1115.56 1117.56 1115.71 1114.89 1115.39 1112.8 1113.14 1113.72 1111.91 1111.91 1109.3 1106.71 1105.61 1105.28 1104.38 1103.09 1101.68 1100.31 1100.0 1099.81 1099.74 1098.07 1098.14 1097.52 1094.47 1094.33 1094.84 1095.77 1097.67 1099.16 1097.29 1094.72 1091.6 1086.49 1080.58 1078.07 1079.16 1081.92 1086.17 1087.31 1090.03 1093.21 1093.7 1094.0 1094.7 1095.86 1096.44 1095.64 1092.62 1090.37 1091.67 1093.97 1097.47 1100.81 1103.83 1106.78 1109.43 1112.13 1114.09 1116.88 1120.2 1122.02 1123.38 1125.33 1127.63 1127.69 1126.01 1124.4 1123.4 1121.74 1121.69 1121.36 1119.96 1118.47 1117.93 1115.89 1114.79 1113.58 1112.35 1110.41 1107.33 1106.24 1104.27 1101.41 1097.35 1091.71 1086.68 1082.8 1081.16 1079.0 1076.74 1075.35 1074.25 1073.35 1072.78 1072.3 1073.38 1076.11 1079.43 1084.85 1090.79 1096.46 1102.02 1104.75 1106.49 1106.66 1106.99 1106.3 1105.09 1103.2 1102.63 1102.93 1101.58 1100.12 1099.31 1098.87 1099.35 1099.88 1100.24 1100.74 1101.74 1102.07 1102.58 1101.66 1100.78 1100.24 1101.13 1101.3 1100.43 1099.71 1100.46 1103.76 1107.16 1e+20 1e+20 1e+20 1e+20 1e+20 1e+20 1e+20 1e+20 1e+20 1e+20 1e+20 1e+20 1e+20 1e+20 1e+20 1e+20 1e+20 1e+20 1e+20 1e+20 1e+20 1e+20 1e+20 1e+20 1e+20 1e+20 1e+20 1e+20 1e+20 1e+20 1e+20 1e+20 1e+20 1e+20 1e+20 1e+20 1e+20 1e+20 1e+20 1e+20 1e+20 1e+20 1e+20 1e+20 1e+20 1e+20 1e+20 1e+20 1e+20 1e+20 1e+20 1e+20 1e+20 1e+20 1e+20 1e+20 1e+20 1e+20 1e+20 1e+20 1e+20 1e+20 1e+20 1e+20 1e+20 1e+20 1e+20 1e+20 1e+20 1e+20 1e+20 1e+20 1e+20 1e+20 1e+20 1e+20 1e+20
1e+20 1e+20 1e+20 1e+20 1e+20 1e+20 1e+20 1e+20 1e+20 1e+20 1e+20 1e+20 1e+20 1e+20 1e+20 1e+20 1e+20 1e+20 1e+20 1e+20 1116.68 1115.97 1114.96 1115.77 1115.42 1115.6 1115.41 1112.64 1111.81 1112.63 1110.12 1108.65 1107.16 1106.31 1105.49 1104.37 1103.2 1102.07 1100.14 1098.36 1098.42 1097.72 1097.73 1097.04 1096.57 1096.38 1094.75 1094.1 1093.23 1093.71 1094.86 1098.38 1097.11 1094.13 1090.62 1086.04 1081.01 1079.41 1081.51 1088.32 1091.63 1091.53 1092.73 1094.99 1095.19 1095.99 1097.05 1097.9 1098.57 1096.8 1093.11 1090.91 1092.5 1096.21 1098.61 1101.16 1104.27 1106.76 1109.47 1112.02 1114.75 1117.5 1120.46 1123.03 1125.74 1131.76 1132.9 1131.55 1129.74 1127.44 1125.08 1123.75 1123.58 1122.84 1121.44 1120.58 1120.08 1117.47 1115.62 1114.18 1112.81 1111.08 1108.63 1106.54 1104.48 1101.68 1097.82 1092.54 1087.89 1085.01 1083.69 1082.82 1080.72 1079.06 1078.06 1076.36 1074.85 1073.92 1072.76 1074.04 1076.86 1082.92 1089.12 1093.93 1098.52 1101.9 1104.23 1105.25 1105.56 1105.03 1103.94 1102.54 1101.63 1101.79 1101.41 1100.47 1099.71 1099.69 1100.87 1101.91 1102.85 1103.82 1105.2 1105.07 1105.51 1105.36 1105.37 1104.52 1104.04 1103.36 1102.36 1101.72 1102.23 1104.2 1e+20 1e+20 1e+20 1e+20 1e+20 1e+20 1e+20 1e+20 1e+20 1e+20 1e+20 1e+20 1e+20 1e+20 1e+20 1e+20 1e+20 1e+20 1e+20 1e+20 1e+20 1e+20 1e+20 1e+20 1e+20 1e+20 1e+20 1e+20 1e+20 1e+20 1e+20 1e+20 1e+20 1e+20 1e+20 1e+20 1e+20 1e+20 1e+20 1e+20 1e+20 1e+20 1e+20 1e+20 1e+20 1e+20 1e+20 1e+20 1e+20 1e+20 1e+20 1e+20 1e+20 1e+20 1e+20 1e+20 1e+20 1e+20 1e+20 1e+20 1e+20 1e+20 1e+20 1e+20 1e+20 1e+20 1e+20 1e+20 1e+20 1e+20 1e+20 1e+20 1e+20 1e+20 1e+20 1e+20 1e+20 1e+20
1e+20 1e+20 1e+20 1e+20 1e+20 1e+20 1e+20 1e+20 1e+20 1e+20 1e+20 1e+20 1e+20 1e+20 1e+20 1e+20 1e+20 1e+20 1e+20 1e+20 1117.98 1116.58 1114.81 1114.35 1113.67 1113.3 1112.72 1110.7 1109.71 1109.71 1108.63 1108.45 1107.48 1106.03 1105.47 1103.56 1102.76 1102.01 1100.37 1098.51 1098.53 1095.9 1095.36 1094.53 1094.03 1094.16 1093.67 1092.52 1091.54 1091.86 1092.8 1095.06 1095.58 1092.58 1089.29 1085.05 1080.34 1079.01 1079.12 1085.91 1092.51 1094.02 1095.53 1096.14 1096.16 1097.7 1099.05 1099.21 1099.44 1097.09 1094.07 1092.11 1093.69 1099.49 1100.31 1102.64 1105.87 1108.38 1110.35 1111.92 1114.62 1117.55 1120.45 1124.02 1129.58 1139.41 1138.84 1136.18 1133.75 1130.83 1127.81 1126.02 1125.79 1124.49 1122.52 1121.63 1120.34 1117.91 1115.86 1114.64 1113.1 1111.23 1109.01 1106.72 1105.2 1102.7 1099.36 1094.9 1090.48 1087.84 1086.02 1085.22 1084.08 1082.2 1080.35 1078.55 1076.01 1074.11 1072.19 1073.64 1075.96 1081.15 1086.28 1091.29 1094.93 1097.94 1101.35 1103.89 1104.54 1104.3 1103.13 1102.31 1101.5 1101.1 1101.02 1100.96 1100.28 1100.67 1102.19 1103.5 1105.0 1107.53 1109.7 1108.71 1109.01 1109.11 1110.14 1108.59 1107.0 1105.58 1104.38 1103.69 1103.88 1e+20 1e+20 1e+20 1e+20 1e+20 1e+20 1e+20 1e+20 1e+20 1e+20 1e+20 1e+20 1e+20 1e+20 1e+20 1e+20 1e+20 1e+20 1e+20 1e+20 1e+20 1e+20 1e+20 1e+20 1e+20 1e+20 1e+20 1e+20 1e+20 1e+20 1e+20 1e+20 1e+20 1e+20 1e+20 1e+20 1e+20 1e+20 1e+20 1e+20 1e+20 1e+20 1e+20 1e+20 1e+20 1e+20 1e+20 1e+20 1e+20 1e+20 1e+20 1e+20 1e+20 1e+20 1e+20 1e+20 1e+20 1e+20 1e+20 1e+20 1e+20 1e+20 1e+20 1e+20 1e+20 1e+20 1e+20 1e+20 1e+20 1e+20 1e+20 1e+20 1e+20 1e+20 1e+20 1e+20 1e+20 1e+20 1e+20
1e+20 1e+20 1e+20 1e+20 1e+20 1e+20 1e+20 1e+20 1e+20 1e+20 1e+20 1e+20 1e+20 1e+20 1e+20 1e+20 1e+20 1e+20 1e+20 1e+20 1116.58 1115.46 1114.53 1113.81 1113.34 1113.36 1111.92 1110.3 1108.84 1107.83 1107.14 1105.94 1106.18 1106.18 1104.97 1102.12 1101.79 1101.9 1100.96 1100.06 1095.61 1093.71 1092.47 1091.54 1091.26 1091.73 1091.28 1091.28 1089.55 1089.44 1090.27 1091.35 1091.47 1089.22 1085.81 1082.16 1078.81 1077.62 1079.38 1087.2 1093.85 1095.95 1098.3 1098.1 1098.27 1099.64 1101.62 1101.97 1101.32 1098.26 1095.7 1093.81 1094.52 1099.51 1101.07 1103.55 1106.65 1109.93 1111.76 1113.18 1115.36 1117.87 1120.35 1123.57 1128.61 1136.24 1138.67 1138.71 1136.79 1133.92 1130.94 1129.09 1127.64 1125.51 1123.73 1122.78 1120.63 1118.34 1116.26 1114.76 1113.43 1111.62 1109.34 1107.25 1105.61 1103.54 1100.72 1096.77 1092.88 1090.21 1088.28 1087.32 1086.27 1084.55 1082.09 1079.86 1077.06 1075.5 1074.09 1074.26 1075.39 1079.81 1084.47 1089.55 1093.43 1096.23 1099.23 1101.56 1102.99 1103.67 1102.82 1101.52 1101.54 1101.32 1101.36 1102.2 1101.61 1102.1 1103.6 1103.81 1105.08 1109.87 1113.02 1113.43 1113.14 1112.78 1112.72 1111.02 1109.11 1107.4 1e+20 1e+20 1e+20 1e+20 1e+20 1e+20 1e+20 1e+20 1e+20 1e+20 1e+20 1e+20 1e+20 1e+20 1e+20 1e+20 1e+20 1e+20 1e+20 1e+20 1e+20 1e+20 1e+20 1e+20 1e+20 1e+20 1e+20 1e+20 1e+20 1e+20 1e+20 1e+20 1e+20 1e+20 1e+20 1e+20 1e+20 1e+20 1e+20 1e+20 1e+20 1e+20 1e+20 1e+20 1e+20 1e+20 1e+20 1e+20 1e+20 1e+20 1e+20 1e+20 1e+20 1e+20 1e+20 1e+20 1e+20 1e+20 1e+20 1e+20 1e+20 1e+20 1e+20 1e+20 1e+20 1e+20 1e+20 1e+20 1e+20 1e+20 1e+20 1e+20 1e+20 1e+20 1e+20 1e+20 1e+20 1e+20 1e+20 1e+20 1e+20 1e+20
1e+20 1e+20 1e+20 1e+20 1e+20 1e+20 1e+20 1e+20 1e+20 1e+20 1e+20 1e+20 1e+20 1e+20 1e+20 1e+20 1e+20 1e+20 1e+20 1e+20 1114.28 1114.34 1114.29 1113.44 1114.06 1115.22 1113.73 1111.45 1108.73 1107.52 1106.7 1103.55 1104.41 1105.85 1105.66 1102.24 1100.93 1101.99 1101.18 1099.76 1091.27 1091.25 1090.55 1089.3 1089.33 1090.22 1088.39 1088.43 1088.32 1087.34 1087.4 1088.0 1087.74 1086.17 1084.4 1080.72 1078.79 1077.75 1079.17 1087.48 1092.77 1095.37 1098.99 1099.5 1100.05 1101.42 1103.28 1103.86 1102.4 1099.84 1098.04 1096.4 1096.66 1100.77 1101.32 1103.57 1105.95 1108.82 1111.48 1113.63 1115.8 1117.69 1120.12 1123.46 1128.17 1132.94 1137.11 1140.37 1138.92 1135.76 1133.15 1131.14 1128.16 1126.54 1125.06 1125.2 1122.15 1119.55 1117.79 1115.67 1114.01 1111.68 1109.52 1107.37 1105.2 1103.7 1101.78 1098.41 1094.68 1092.05 1090.03 1089.11 1087.99 1086.0 1083.49 1080.83 1078.05 1076.26 1075.95 1076.02 1077.12 1080.59 1084.81 1088.92 1093.37 1096.51 1098.66 1099.48 1100.75 1101.9 1102.1 1101.42 1101.5 1101.57 1101.99 1102.69 1102.65 1103.73 1105.17 1104.46 1103.12 1109.54 1115.1 1116.68 1115.94 1114.88 1113.87 1112.13 1110.29 1108.63 1e+20 1e+20 1e+20 1e+20 1e+20 1e+20 1e+20 1e+20 1e+20 1e+20 1e+20 1e+20 1e+20 1e+20 1e+20 1e+20 1e+20 1e+20 1e+20 1e+20 1e+20 1e+20 1e+20 1e+20 1e+20 1e+20 1e+20 1e+20 1e+20 1e+20 1e+20 1e+20 1e+20 1e+20 1e+20 1e+20 1e+20 1e+20 1e+20 1e+20 1e+20 1e+20 1e+20 1e+20 1e+20 1e+20 1e+20 1e+20 1e+20 1e+20 1e+20 1e+20 1e+20 1e+20 1e+20 1e+20 1e+20 1e+20 1e+20 1e+20 1e+20 1e+20 1e+20 1e+20 1e+20 1e+20 1e+20 1e+20 1e+20 1e+20 1e+20 1e+20 1e+20 1e+20 1e+20 1e+20 1e+20 1e+20 1e+20 1e+20 1e+20 1e+20
1e+20 1e+20 1e+20 1e+20 1e+20 1e+20 1e+20 1e+20 1e+20 1e+20 1e+20 1e+20 1e+20 1e+20 1e+20 1e+20 1e+20 1e+20 1e+20 1e+20 1113.63 1114.3 1114.51 1113.41 1113.99 1115.13 1114.97 1114.26 1111.87 1109.99 1108.56 1106.6 1106.82 1107.75 1106.67 1103.25 1100.36 1101.29 1102.59 1098.36 1093.64 1091.84 1089.9 1088.54 1088.36 1090.6 1088.76 1087.2 1088.25 1086.94 1085.76 1085.06 1084.8 1084.37 1083.39 1081.4 1080.25 1080.11 1082.73 1089.41 1093.21 1096.82 1100.29 1100.83 1101.56 1102.55 1103.87 1104.62 1103.06 1101.01 1099.57 1098.0 1097.19 1099.11 1101.02 1103.38 1105.58 1108.04 1110.71 1113.39 1115.63 1117.44 1119.37 1122.52 1126.69 1130.89 1135.85 1142.19 1141.05 1136.61 1133.67 1131.13 1128.47 1127.28 1126.84 1126.86 1123.58 1120.75 1118.67 1116.27 1114.4 1112.42 1109.92 1107.82 1105.26 1103.57 1101.54 1098.87 1095.43 1092.73 1090.97 1090.1 1088.59 1086.63 1084.19 1081.28 1078.69 1077.0 1076.12 1076.56 1078.09 1081.51 1085.33 1088.7 1092.48 1096.09 1098.42 1098.49 1099.34 1100.26 1100.95 1101.19 1101.57 1101.86 1102.64 1103.51 1103.4 1105.76 1108.46 1108.54 1107.73 1111.12 1115.0 1116.65 1116.41 1115.38 1114.13 1112.48 1e+20 1e+20 1e+20 1e+20 1e+20 1e+20 1e+20 1e+20 1e+20 1e+20 1e+20 1e+20 1e+20 1e+20 1e+20 1e+20 1e+20 1e+20 1e+20 1e+20 1e+20 1e+20 1e+20 1e+20 1e+20 1e+20 1e+20 1e+20 1e+20 1e+20 1e+20 1e+20 1e+20 1e+20 1e+20 1e+20 1e+20 1e+20 1e+20 1e+20 1e+20 1e+20 1e+20 1e+20 1e+20 1e+20 1e+20 1e+20 1e+20 1e+20 1e+20 1e+20 1e+20 1e+20 1e+20 1e+20 1e+20 1e+20 1e+20 1e+20 1e+20 1e+20 1e+20 1e+20 1e+20 1e+20 1e+20 1e+20 1e+20 1e+20 1e+20 1e+20 1e+20 1e+20 1e+20 1e+20 1e+20 1e+20 1e+20 1e+20 1e+20 1e+20 1e+20 1e+20
1e+20 1e+20 1e+20 1e+20 1e+20 1e+20 1e+20 1e+20 1e+20 1e+20 1e+20 1e+20 1e+20 1e+20 1e+20 1e+20 1e+20 1e+20 1e+20 1e+20 1115.39 1116.74 1116.61 1115.68 1114.84 1115.12 1114.6 1114.83 1114.06 1112.73 1111.04 1109.73 1109.02 1109.41 1108.36 1105.6 1102.21 1100.03 1100.05 1098.93 1097.29 1095.25 1093.44 1090.48 1089.12 1089.9 1090.03 1090.27 1089.57 1087.82 1086.62 1085.73 1084.02 1083.36 1083.26 1082.13 1081.08 1079.94 1083.95 1090.07 1094.81 1098.81 1102.5 1102.92 1103.33 1104.06 1105.03 1106.14 1105.09 1103.26 1101.66 1099.79 1098.49 1098.15 1100.38 1102.82 1105.0 1106.73 1109.68 1112.84 1115.18 1116.52 1118.0 1120.91 1124.83 1128.92 1133.48 1139.57 1138.54 1135.78 1133.13 1130.89 1129.02 1128.07 1128.27 1128.24 1124.58 1121.49 1119.35 1117.18 1115.43 1114.83 1112.44 1109.61 1106.7 1103.94 1101.66 1099.54 1096.23 1093.25 1091.46 1089.88 1088.17 1086.21 1084.05 1081.69 1079.5 1077.83 1077.21 1077.21 1079.66 1083.09 1086.49 1089.57 1092.08 1093.84 1095.67 1096.54 1097.92 1098.89 1100.04 1100.99 1101.44 1102.06 1103.31 1104.46 1105.42 1107.82 1110.26 1111.46 1111.13 1112.59 1114.69 1115.82 1115.82 1e+20 1e+20 1e+20 1e+20 1e+20 1e+20 1e+20 1e+20 1e+20 1e+20 1e+20 1e+20 1e+20 1e+20 1e+20 1e+20 1e+20 1e+20 1e+20 1e+20 1e+20 1e+20 1e+20 1e+20 1e+20 1e+20 1e+20 1e+20 1e+20 1e+20 1e+20 1e+20 1e+20 1e+20 1e+20 1e+20 1e+20 1e+20 1e+20 1e+20 1e+20 1e+20 1e+20 1e+20 1e+20 1e+20 1e+20 1e+20 1e+20 1e+20 1e+20 1e+20 1e+20 1e+20 1e+20 1e+20 1e+20 1e+20 1e+20 1e+20 1e+20 1e+20 1e+20 1e+20 1e+20 1e+20 1e+20 1e+20 1e+20 1e+20 1e+20 1e+20 1e+20 1e+20 1e+20 1e+20 1e+20 1e+20 1e+20 1e+20 1e+20 1e+20 1e+20 1e+20 1e+20 1e+20 1e+20
1e+20 1e+20 1e+20 1e+20 1e+20 1e+20 1e+20 1e+20 1e+20 1e+20 1e+20 1e+20 1e+20 1e+20 1e+20 1e+20 1e+20 1e+20 1e+20 1e+20 1117.63 1118.05 1116.14 1116.88 1116.53 1116.33 1114.92 1114.24 1113.53 1112.91 1111.94 1111.19 1110.14 1109.57 1108.42 1106.83 1104.26 1101.78 1101.12 1099.58 1098.84 1097.27 1098.97 1094.59 1090.99 1089.15 1088.99 1091.05 1091.15 1089.04 1088.44 1088.95 1086.33 1083.93 1083.81 1082.17 1080.41 1078.64 1083.12 1090.0 1097.13 1100.62 1103.87 1104.28 1104.74 1105.3 1105.57 1105.88 1105.82 1104.95 1103.77 1102.62 1101.42 1100.26 1101.27 1103.58 1105.26 1106.6 1109.0 1111.71 1113.92 1115.69 1117.55 1120.22 1123.67 1127.67 1132.46 1139.55 1139.32 1136.31 1133.32 1130.89 1129.41 1128.9 1129.34 1128.24 1124.55 1122.02 1119.69 1118.02 1116.85 1115.09 1113.15 1109.11 1106.27 1103.44 1101.3 1099.72 1096.5 1093.22 1090.79 1088.86 1087.12 1085.3 1083.84 1082.34 1080.9 1078.84 1078.43 1078.35 1081.17 1084.09 1087.57 1090.42 1091.82 1092.71 1093.27 1094.19 1095.5 1097.06 1098.78 1100.52 1102.03 1103.41 1104.67 1105.69 1106.74 1108.66 1110.61 1111.82 1112.2 1113.03 1114.18 1e+20 1e+20 1e+20 1e+20 1e+20 1e+20 1e+20 1e+20 1e+20 1e+20 1e+20 1e+20 1e+20 1e+20 1e+20 1e+20 1e+20 1e+20 1e+20 1e+20 1e+20 1e+20 1e+20 1e+20 1e+20 1e+20 1e+20 1e+20 1e+20 1e+20 1e+20 1e+20 1e+20 1e+20 1e+20 1e+20 1e+20 1e+20 1e+20 1e+20 1e+20 1e+20 1e+20 1e+20 1e+20 1e+20 1e+20 1e+20 1e+20 1e+20 1e+20 1e+20 1e+20 1e+20 1e+20 1e+20 1e+20 1e+20 1e+20 1e+20 1e+20 1e+20 1e+20 1e+20 1e+20 1e+20 1e+20 1e+20 1e+20 1e+20 1e+20 1e+20 1e+20 1e+20 1e+20 1e+20 1e+20 1e+20 1e+20 1e+20 1e+20 1e+20 1e+20 1e+20 1e+20 1e+20 1e+20 1e+20 1e+20
1e+20 1e+20 1e+20 1e+20 1e+20 1e+20 1e+20 1e+20 1e+20 1e+20 1e+20 1e+20 1e+20 1e+20 1e+20 1e+20 1e+20 1e+20 1e+20 1e+20 1119.17 1119.17 1117.86 1117.84 1117.34 1117.95 1116.25 1114.34 1112.8 1112.59 1111.74 1111.95 1110.91 1109.51 1107.96 1107.36 1105.5 1103.06 1101.94 1099.9 1099.48 1095.44 1097.94 1095.88 1092.64 1089.24 1087.3 1090.51 1089.42 1088.9 1089.78 1091.67 1089.56 1087.02 1084.81 1081.87 1080.93 1080.91 1085.37 1090.19 1096.45 1102.97 1105.79 1105.92 1106.06 1106.59 1106.9 1107.14 1107.75 1106.26 1105.7 1105.88 1103.94 1102.84 1102.52 1103.88 1105.79 1107.34 1109.48 1112.18 1113.73 1115.74 1117.6 1119.48 1122.7 1126.7 1131.28 1136.36 1137.5 1135.87 1133.71 1131.98 1131.39 1132.51 1131.59 1129.46 1125.75 1122.29 1119.38 1117.84 1116.25 1114.15 1110.75 1107.0 1104.83 1102.66 1100.53 1099.51 1096.37 1093.02 1089.81 1087.62 1086.22 1085.03 1084.12 1083.41 1082.94 1080.4 1079.25 1078.62 1081.4 1084.8 1087.77 1089.88 1091.06 1091.57 1091.51 1092.07 1092.89 1095.77 1098.24 1100.36 1102.96 1105.07 1106.1 1106.75 1107.56 1108.83 1110.26 1111.32 1112.02 1112.75 1113.57 1e+20 1e+20 1e+20 1e+20 1e+20 1e+20 1e+20 1e+20 1e+20 1e+20 1e+20 1e+20 1e+20 1e+20 1e+20 1e+20 1e+20 1e+20 1e+20 1e+20 1e+20 1e+20 1e+20 1e+20 1e+20 1e+20 1e+20 1e+20 1e+20 1e+20 1e+20 1e+20 1e+20 1e+20 1e+20 1e+20 1e+20 1e+20 1e+20 1e+20 1e+20 1e+20 1e+20 1e+20 1e+20 1e+20 1e+20 1e+20 1e+20 1e+20 1e+20 1e+20 1e+20 1e+20 1e+20 1e+20 1e+20 1e+20 1e+20 1e+20 1e+20 1e+20 1e+20 1e+20 1e+20 1e+20 1e+20 1e+20 1e+20 1e+20 1e+20 1e+20 1e+20 1e+20 1e+20 1e+20 1e+20 1e+20 1e+20 1e+20 1e+20 1e+20 1e+20 1e+20 1e+20 1e+20 1e+20 1e+20 1e+20
1e+20 1e+20 1e+20 1e+20 1e+20 1e+20 1e+20 1e+20 1e+20 1e+20 1e+20 1e+20 1e+20 1e+20 1e+20 1e+20 1e+20 1e+20 1e+20 1e+20 1120.51 1120.74 1119.31 1118.13 1117.3 1117.28 1116.65 1114.93 1113.78 1112.84 1111.89 1111.72 1110.94 1109.86 1108.55 1108.05 1106.59 1105.07 1103.47 1100.0 1099.43 1097.85 1099.45 1097.46 1093.76 1091.29 1089.65 1089.08 1086.44 1087.37 1090.27 1094.2 1091.38 1088.8 1086.41 1083.27 1081.15 1081.22 1084.28 1088.85 1092.53 1098.17 1103.99 1105.91 1107.15 1107.98 1108.64 1109.05 1109.09 1106.79 1106.83 1107.14 1105.03 1104.32 1104.03 1104.52 1106.47 1108.21 1110.34 1113.59 1114.96 1116.85 1118.56 1119.96 1122.43 1125.82 1129.47 1133.65 1136.07 1135.88 1133.83 1132.18 1132.69 1135.65 1132.83 1129.1 1125.51 1121.36 1118.6 1117.0 1114.89 1112.71 1109.0 1106.03 1104.23 1102.54 1100.62 1098.95 1096.09 1093.29 1090.22 1087.41 1086.05 1084.89 1084.18 1083.23 1081.35 1080.26 1080.08 1079.79 1081.82 1084.98 1087.24 1088.4 1089.3 1090.08 1089.78 1090.96 1092.05 1094.41 1097.35 1099.83 1102.86 1105.97 1106.74 1107.11 1107.67 1108.51 1109.56 1110.51 1e+20 1e+20 1e+20 1e+20 1e+20 1e+20 1e+20 1e+20 1e+20 1e+20 1e+20 1e+20 1e+20 1e+20 1e+20 1e+20 1e+20 1e+20 1e+20 1e+20 1e+20 1e+20 1e+20 1e+20 1e+20 1e+20 1e+20 1e+20 1e+20 1e+20 1e+20 1e+20 1e+20 1e+20 1e+20 1e+20 1e+20 1e+20 1e+20 1e+20 1e+20 1e+20 1e+20 1e+20 1e+20 1e+20 1e+20 1e+20 1e+20 1e+20 1e+20 1e+20 1e+20 1e+20 1e+20 1e+20 1e+20 1e+20 1e+20 1e+20 1e+20 1e+20 1e+20 1e+20 1e+20 1e+20 1e+20 1e+20 1e+20 1e+20 1e+20 1e+20 1e+20 1e+20 1e+20 1e+20 1e+20 1e+20 1e+20 1e+20 1e+20 1e+20 1e+20 1e+20 1e+20 1e+20 1e+20 1e+20 1e+20 1e+20 1e+20 1e+20
1e+20 1e+20 1e+20 1e+20 1e+20 1e+20 1e+20 1e+20 1e+20 1e+20 1e+20 1e+20 1e+20 1e+20 1e+20 1e+20 1e+20 1e+20 1e+20 1e+20 1122.4 1121.35 1119.94 1118.38 1117.68 1117.28 1117.38 1116.51 1115.15 1114.26 1112.76 1111.72 1111.23 1110.35 1108.82 1108.17 1106.2 1105.49 1103.58 1100.59 1098.26 1100.14 1099.19 1096.75 1092.66 1091.98 1094.07 1092.05 1087.84 1086.18 1088.76 1092.14 1091.23 1088.49 1086.56 1083.02 1080.85 1081.19 1083.9 1089.37 1092.42 1095.81 1103.79 1105.87 1107.21 1108.38 1110.25 1110.82 1110.39 1109.16 1108.46 1108.16 1107.11 1106.58 1106.5 1106.65 1107.87 1109.5 1111.74 1114.55 1116.0 1117.97 1119.63 1121.07 1123.09 1125.8 1128.65 1131.94 1134.56 1135.13 1133.16 1131.3 1130.82 1131.99 1129.58 1125.59 1122.5 1119.08 1116.54 1114.83 1113.3 1112.33 1109.49 1106.31 1104.5 1102.29 1100.37 1098.6 1096.55 1094.34 1092.29 1089.7 1087.28 1085.36 1084.55 1083.5 1081.04 1080.89 1081.36 1081.03 1082.19 1084.92 1086.64 1087.07 1088.28 1090.1 1090.2 1090.87 1091.26 1092.12 1094.73 1097.9 1101.26 1104.24 1105.7 1106.46 1107.13 1e+20 1e+20 1e+20 1e+20 1e+20 1e+20 1e+20 1e+20 1e+20 1e+20 1e+20 1e+20 1e+20 1e+20 1e+20 1e+20 1e+20 1e+20 1e+20 1e+20 1e+20 1e+20 1e+20 1e+20 1e+20 1e+20 1e+20 1e+20 1e+20 1e+20 1e+20 1e+20 1e+20 1e+20 1e+20 1e+20 1e+20 1e+20 1e+20 1e+20 1e+20 1e+20 1e+20 1e+20 1e+20 1e+20 1e+20 1e+20 1e+20 1e+20 1e+20 1e+20 1e+20 1e+20 1e+20 1e+20 1e+20 1e+20 1e+20 1e+20 1e+20 1e+20 1e+20 1e+20 1e+20 1e+20 1e+20 1e+20 1e+20 1e+20 1e+20 1e+20 1e+20 1e+20 1e+20 1e+20 1e+20 1e+20 1e+20 1e+20 1e+20 1e+20 1e+20 1e+20 1e+20 1e+20 1e+20 1e+20 1e+20 1e+20 1e+20 1e+20 1e+20 1e+20 1e+20
1e+20 1e+20 1e+20 1e+20 1e+20 1e+20 1e+20 1e+20 1e+20 1e+20 1e+20 1e+20 1e+20 1e+20 1e+20 1e+20 1e+20 1e+20 1e+20 1e+20 1123.0 1121.54 1120.95 1119.59 1118.74 1117.78 1117.78 1117.55 1116.45 1114.95 1113.41 1112.16 1111.31 1110.84 1108.74 1106.65 1104.31 1104.59 1103.73 1102.25 1099.81 1099.91 1098.25 1097.35 1093.33 1090.6 1092.34 1092.85 1090.44 1089.44 1090.3 1092.18 1091.97 1089.66 1087.62 1083.26 1080.6 1081.28 1083.92 1088.08 1093.13 1095.82 1102.65 1104.73 1106.08 1108.56 1111.59 1112.58 1111.84 1111.47 1110.84 1109.35 1108.77 1108.0 1108.37 1108.42 1108.4 1109.97 1112.48 1114.85 1116.48 1118.83 1120.65 1122.21 1124.09 1126.43 1128.49 1130.7 1132.01 1132.77 1131.61 1130.15 1129.07 1128.85 1126.42 1122.6 1119.9 1117.17 1115.03 1113.1 1111.59 1111.05 1109.49 1106.24 1103.93 1101.72 1099.97 1098.47 1096.41 1094.34 1092.6 1090.9 1088.52 1086.64 1085.51 1084.3 1082.93 1082.17 1082.39 1082.44 1082.96 1084.3 1085.38 1086.2 1087.89 1090.31 1091.55 1091.54 1090.75 1090.19 1092.42 1095.84 1099.25 1102.15 1104.08 1105.34 1106.29 1e+20 1e+20 1e+20 1e+20 1e+20 1e+20 1e+20 1e+20 1e+20 1e+20 1e+20 1e+20 1e+20 1e+20 1e+20 1e+20 1e+20 1e+20 1e+20 1e+20 1e+20 1e+20 1e+20 1e+20 1e+20 1e+20 1e+20 1e+20 1e+20 1e+20 1e+20 1e+20 1e+20 1e+20 1e+20 1e+20 1e+20 1e+20 1e+20 1e+20 1e+20 1e+20 1e+20 1e+20 1e+20 1e+20 1e+20 1e+20 1e+20 1e+20 1e+20 1e+20 1e+20 1e+20 1e+20 1e+20 1e+20 1e+20 1e+20 1e+20 1e+20 1e+20 1e+20 1e+20 1e+20 1e+20 1e+20 1e+20 1e+20 1e+20 1e+20 1e+20 1e+20 1e+20 1e+20 1e+20 1e+20 1e+20 1e+20 1e+20 1e+20 1e+20 1e+20 1e+20 1e+20 1e+20 1e+20 1e+20 1e+20 1e+20 1e+20 1e+20 1e+20 1e+20 1e+20
1e+20 1e+20 1e+20 1e+20 1e+20 1e+20 1e+20 1e+20 1e+20 1e+20 1e+20 1e+20 1e+20 1e+20 1e+20 1e+20 1e+20 1e+20 1e+20 1e+20 1123.97 1122.57 1121.54 1120.59 1119.75 1118.82 1117.93 1117.4 1117.14 1115.66 1113.6 1111.89 1110.48 1110.48 1109.32 1107.93 1105.86 1104.89 1103.24 1102.4 1100.83 1100.4 1099.04 1097.85 1095.73 1093.28 1093.63 1095.0 1094.28 1093.76 1093.68 1093.86 1093.32 1090.31 1086.22 1081.76 1078.68 1080.99 1084.93 1085.28 1092.35 1096.71 1105.06 1105.81 1105.25 1106.68 1109.58 1111.23 1110.99 1111.33 1111.83 1110.36 1109.62 1109.55 1110.48 1110.43 1109.95 1111.42 1113.73 1115.49 1116.38 1118.3 1120.72 1123.11 1125.46 1127.45 1129.04 1131.1 1131.96 1132.1 1130.92 1129.62 1127.83 1126.93 1124.13 1120.42 1118.21 1116.28 1114.21 1111.68 1110.35 1109.69 1108.48 1106.37 1103.6 1102.19 1100.16 1098.8 1096.63 1094.49 1092.18 1090.49 1088.3 1086.97 1085.73 1084.86 1084.8 1083.87 1084.27 1084.57 1084.95 1085.44 1085.77 1087.14 1088.99 1091.66 1093.88 1093.16 1091.84 1091.14 1092.39 1094.91 1097.74 1100.39 1e+20 1e+20 1e+20 1e+20 1e+20 1e+20 1e+20 1e+20 1e+20 1e+20 1e+20 1e+20 1e+20 1e+20 1e+20 1e+20 1e+20 1e+20 1e+20 1e+20 1e+20 1e+20 1e+20 1e+20 1e+20 1e+20 1e+20 1e+20 1e+20 1e+20 1e+20 1e+20 1e+20 1e+20 1e+20 1e+20 1e+20 1e+20 1e+20 1e+20 1e+20 1e+20 1e+20 1e+20 1e+20 1e+20 1e+20 1e+20 1e+20 1e+20 1e+20 1e+20 1e+20 1e+20 1e+20 1e+20 1e+20 1e+20 1e+20 1e+20 1e+20 1e+20 1e+20 1e+20 1e+20 1e+20 1e+20 1e+20 1e+20 1e+20 1e+20 1e+20 1e+20 1e+20 1e+20 1e+20 1e+20 1e+20 1e+20 1e+20 1e+20 1e+20 1e+20 1e+20 1e+20 1e+20 1e+20 1e+20 1e+20 1e+20 1e+20 1e+20 1e+20 1e+20 1e+20 1e+20 1e+20 1e+20
1e+20 1e+20 1e+20 1e+20 1e+20 1e+20 1e+20 1e+20 1e+20 1e+20 1e+20 1e+20 1e+20 1e+20 1e+20 1e+20 1e+20 1e+20 1e+20 1e+20 1124.41 1123.07 1121.6 1121.02 1120.25 1118.97 1117.64 1116.34 1116.14 1114.79 1113.12 1111.56 1110.78 1110.64 1109.0 1108.24 1107.18 1105.81 1104.12 1103.56 1102.95 1101.48 1099.55 1097.24 1095.79 1094.66 1093.74 1096.67 1097.44 1097.33 1095.07 1094.95 1093.95 1089.26 1084.43 1080.12 1078.08 1080.28 1084.2 1089.53 1095.64 1098.29 1103.55 1105.14 1104.51 1105.46 1107.86 1109.97 1110.5 1110.88 1111.53 1110.92 1110.57 1111.13 1112.12 1112.61 1111.97 1112.78 1114.73 1116.36 1117.03 1118.19 1120.43 1123.07 1125.82 1128.4 1130.65 1132.37 1133.59 1133.4 1131.95 1130.78 1129.3 1127.49 1124.48 1121.3 1118.46 1116.07 1113.66 1110.62 1109.17 1108.47 1107.48 1106.49 1104.25 1102.55 1100.61 1098.46 1096.46 1095.1 1092.47 1089.9 1087.53 1086.41 1085.21 1083.95 1084.3 1085.05 1085.94 1086.91 1087.15 1087.45 1088.53 1089.45 1090.86 1092.95 1094.74 1094.14 1093.01 1092.39 1093.01 1094.64 1e+20 1e+20 1e+20 1e+20 1e+20 1e+20 1e+20 1e+20 1e+20 1e+20 1e+20 1e+20 1e+20 1e+20 1e+20 1e+20 1e+20 1e+20 1e+20 1e+20 1e+20 1e+20 1e+20 1e+20 1e+20 1e+20 1e+20 1e+20 1e+20 1e+20 1e+20 1e+20 1e+20 1e+20 1e+20 1e+20 1e+20 1e+20 1e+20 1e+20 1e+20 1e+20 1e+20 1e+20 1e+20 1e+20 1e+20 1e+20 1e+20 1e+20 1e+20 1e+20 1e+20 1e+20 1e+20 1e+20 1e+20 1e+20 1e+20 1e+20 1e+20 1e+20 1e+20 1e+20 1e+20 1e+20 1e+20 1e+20 1e+20 1e+20 1e+20 1e+20 1e+20 1e+20 1e+20 1e+20 1e+20 1e+20 1e+20 1e+20 1e+20 1e+20 1e+20 1e+20 1e+20 1e+20 1e+20 1e+20 1e+20 1e+20 1e+20 1e+20 1e+20 1e+20 1e+20 1e+20 1e+20 1e+20 1e+20 1e+20
1e+20 1e+20 1e+20 1e+20 1e+20 1e+20 1e+20 1e+20 1e+20 1e+20 1e+20 1e+20 1e+20 1e+20 1e+20 1e+20 1e+20 1e+20 1e+20 1e+20 1124.86 1123.56 1122.04 1121.25 1120.22 1119.01 1117.84 1116.69 1115.72 1113.98 1113.22 1112.4 1111.79 1110.76 1109.21 1108.62 1107.88 1106.54 1104.06 1104.01 1103.27 1101.92 1100.0 1097.86 1096.65 1096.08 1096.71 1099.34 1099.81 1099.04 1094.97 1097.04 1093.79 1088.2 1085.38 1081.17 1078.86 1079.66 1083.04 1087.72 1093.13 1096.35 1099.6 1102.44 1102.83 1103.63 1105.55 1108.16 1109.9 1111.4 1112.67 1111.97 1112.1 1113.07 1113.62 1113.72 1113.42 1113.58 1114.83 1117.04 1118.19 1119.49 1121.12 1123.01 1124.88 1127.6 1131.92 1134.48 1136.44 1136.63 1135.78 1133.95 1132.2 1129.48 1126.44 1123.65 1120.27 1117.52 1115.0 1112.06 1109.66 1108.37 1107.08 1105.83 1104.06 1102.2 1099.9 1097.57 1095.75 1094.44 1092.55 1090.66 1088.72 1087.28 1086.93 1085.38 1085.22 1087.07 1089.25 1089.9 1088.84 1088.65 1090.71 1090.95 1091.76 1093.13 1094.27 1094.17 1093.61 1093.24 1e+20 1e+20 1e+20 1e+20 1e+20 1e+20 1e+20 1e+20 1e+20 1e+20 1e+20 1e+20 1e+20 1e+20 1e+20 1e+20 1e+20 1e+20 1e+20 1e+20 1e+20 1e+20 1e+20 1e+20 1e+20 1e+20 1e+20 1e+20 1e+20 1e+20 1e+20 1e+20 1e+20 1e+20 1e+20 1e+20 1e+20 1e+20 1e+20 1e+20 1e+20 1e+20 1e+20 1e+20 1e+20 1e+20 1e+20 1e+20 1e+20 1e+20 1e+20 1e+20 1e+20 1e+20 1e+20 1e+20 1e+20 1e+20 1e+20 1e+20 1e+20 1e+20 1e+20 1e+20 1e+20 1e+20 1e+20 1e+20 1e+20 1e+20 1e+20 1e+20 1e+20 1e+20 1e+20 1e+20 1e+20 1e+20 1e+20 1e+20 1e+20 1e+20 1e+20 1e+20 1e+20 1e+20 1e+20 1e+20 1e+20 1e+20 1e+20 1e+20 1e+20 1e+20 1e+20 1e+20 1e+20 1e+20 1e+20 1e+20 1e+20 1e+20
1e+20 1e+20 1e+20 1e+20 1e+20 1e+20 1e+20 1e+20 1e+20 1e+20 1e+20 1e+20 1e+20 1e+20 1e+20 1e+20 1e+20 1e+20 1e+20 1e+20 1125.58 1124.77 1123.27 1121.98 1120.71 1119.9 1118.77 1117.7 1116.14 1114.91 1114.31 1113.42 1112.67 1111.63 1110.51 1109.45 1108.77 1107.28 1105.55 1105.31 1103.7 1101.98 1100.32 1098.39 1097.92 1097.83 1099.4 1100.59 1100.41 1098.94 1097.04 1097.71 1094.4 1090.04 1086.65 1083.57 1082.08 1081.3 1083.9 1087.14 1091.22 1093.97 1096.99 1099.76 1100.77 1102.17 1104.06 1106.13 1108.61 1110.73 1112.7 1113.2 1113.78 1115.43 1115.85 1115.41 1115.47 1115.2 1116.04 1118.31 1120.05 1121.59 1123.05 1124.35 1125.66 1127.53 1131.6 1135.86 1139.42 1140.15 1138.92 1137.11 1134.98 1131.7 1128.42 1125.81 1122.67 1119.55 1116.32 1113.31 1111.09 1109.02 1106.42 1104.8 1103.3 1101.25 1098.96 1097.21 1095.45 1093.27 1091.69 1090.16 1088.65 1087.87 1089.36 1089.73 1089.64 1090.86 1092.64 1092.65 1089.1 1087.05 1088.6 1089.83 1091.04 1092.33 1093.36 1093.72 1093.73 1e+20 1e+20 1e+20 1e+20 1e+20 1e+20 1e+20 1e+20 1e+20 1e+20 1e+20 1e+20 1e+20 1e+20 1e+20 1e+20 1e+20 1e+20 1e+20 1e+20 1e+20 1e+20 1e+20 1e+20 1e+20 1e+20 1e+20 1e+20 1e+20 1e+20 1e+20 1e+20 1e+20 1e+20 1e+20 1e+20 1e+20 1e+20 1e+20 1e+20 1e+20 1e+20 1e+20 1e+20 1e+20 1e+20 1e+20 1e+20 1e+20 1e+20 1e+20 1e+20 1e+20 1e+20 1e+20 1e+20 1e+20 1e+20 1e+20 1e+20 1e+20 1e+20 1e+20 1e+20 1e+20 1e+20 1e+20 1e+20 1e+20 1e+20 1e+20 1e+20 1e+20 1e+20 1e+20 1e+20 1e+20 1e+20 1e+20 1e+20 1e+20 1e+20 1e+20 1e+20 1e+20 1e+20 1e+20 1e+20 1e+20 1e+20 1e+20 1e+20 1e+20 1e+20 1e+20 1e+20 1e+20 1e+20 1e+20 1e+20 1e+20 1e+20 1e+20
1e+20 1e+20 1e+20 1e+20 1e+20 1e+20 1e+20 1e+20 1e+20 1e+20 1e+20 1e+20 1e+20 1e+20 1e+20 1e+20 1e+20 1e+20 1e+20 1e+20 1126.4 1126.01 1124.64 1123.12 1121.92 1120.71 1119.65 1119.13 1117.69 1116.32 1115.48 1114.42 1113.61 1112.47 1111.26 1109.73 1108.91 1107.61 1105.89 1104.99 1103.71 1101.69 1100.37 1099.42 1100.03 1100.84 1101.7 1101.66 1100.97 1099.22 1097.44 1096.39 1094.26 1091.49 1088.06 1085.98 1086.48 1085.23 1086.62 1087.99 1090.68 1094.79 1096.67 1098.86 1099.99 1101.79 1103.51 1105.45 1108.28 1111.28 1113.37 1114.5 1115.71 1117.32 1117.93 1116.87 1116.85 1116.58 1117.51 1119.57 1121.83 1123.71 1125.11 1126.62 1128.13 1129.28 1131.82 1136.02 1140.51 1144.35 1143.44 1139.74 1137.17 1133.81 1130.8 1128.43 1125.44 1121.47 1117.64 1114.5 1112.19 1110.36 1107.11 1105.39 1103.5 1101.08 1099.19 1097.64 1095.95 1094.03 1091.62 1089.6 1087.55 1087.66 1090.05 1093.65 1094.4 1095.86 1096.6 1095.54 1088.19 1085.48 1086.33 1087.97 1089.58 1091.08 1e+20 1e+20 1e+20 1e+20 1e+20 1e+20 1e+20 1e+20 1e+20 1e+20 1e+20 1e+20 1e+20 1e+20 1e+20 1e+20 1e+20 1e+20 1e+20 1e+20 1e+20 1e+20 1e+20 1e+20 1e+20 1e+20 1e+20 1e+20 1e+20 1e+20 1e+20 1e+20 1e+20 1e+20 1e+20 1e+20 1e+20 1e+20 1e+20 1e+20 1e+20 1e+20 1e+20 1e+20 1e+20 1e+20 1e+20 1e+20 1e+20 1e+20 1e+20 1e+20 1e+20 1e+20 1e+20 1e+20 1e+20 1e+20 1e+20 1e+20 1e+20 1e+20 1e+20 1e+20 1e+20 1e+20 1e+20 1e+20 1e+20 1e+20 1e+20 1e+20 1e+20 1e+20 1e+20 1e+20 1e+20 1e+20 1e+20 1e+20 1e+20 1e+20 1e+20 1e+20 1e+20 1e+20 1e+20 1e+20 1e+20 1e+20 1e+20 1e+20 1e+20 1e+20 1e+20 1e+20 1e+20 1e+20 1e+20 1e+20 1e+20 1e+20 1e+20 1e+20 1e+20 1e+20
1e+20 1e+20 1e+20 1e+20 1e+20 1e+20 1e+20 1e+20 1e+20 1e+20 1e+20 1e+20 1e+20 1e+20 1e+20 1e+20 1e+20 1e+20 1e+20 1e+20 1127.75 1126.94 1125.18 1123.73 1122.83 1122.13 1120.99 1120.41 1119.11 1117.68 1116.44 1115.29 1114.42 1113.35 1111.75 1110.31 1109.4 1107.93 1106.27 1104.57 1103.24 1101.57 1100.1 1099.83 1100.96 1102.87 1103.29 1102.84 1101.88 1099.92 1098.37 1096.65 1094.55 1091.69 1087.97 1086.1 1087.4 1088.84 1089.84 1092.13 1095.08 1097.86 1099.79 1101.15 1101.46 1103.52 1104.61 1105.87 1108.32 1111.13 1113.58 1114.89 1116.63 1118.11 1118.75 1118.3 1118.14 1117.77 1118.51 1120.22 1122.65 1125.2 1126.72 1128.98 1130.78 1132.22 1134.66 1139.37 1145.52 1152.8 1156.24 1146.56 1139.82 1136.17 1133.24 1130.65 1127.77 1123.56 1119.08 1115.41 1112.63 1110.82 1108.0 1105.97 1104.17 1102.11 1100.41 1099.07 1097.56 1095.83 1092.92 1089.47 1085.74 1084.96 1088.32 1094.51 1098.73 1099.83 1097.79 1092.77 1084.39 1083.36 1084.57 1086.42 1088.18 1e+20 1e+20 1e+20 1e+20 1e+20 1e+20 1e+20 1e+20 1e+20 1e+20 1e+20 1e+20 1e+20 1e+20 1e+20 1e+20 1e+20 1e+20 1e+20 1e+20 1e+20 1e+20 1e+20 1e+20 1e+20 1e+20 1e+20 1e+20 1e+20 1e+20 1e+20 1e+20 1e+20 1e+20 1e+20 1e+20 1e+20 1e+20 1e+20 1e+20 1e+20 1e+20 1e+20 1e+20 1e+20 1e+20 1e+20 1e+20 1e+20 1e+20 1e+20 1e+20 1e+20 1e+20 1e+20 1e+20 1e+20 1e+20 1e+20 1e+20 1e+20 1e+20 1e+20 1e+20 1e+20 1e+20 1e+20 1e+20 1e+20 1e+20 1e+20 1e+20 1e+20 1e+20 1e+20 1e+20 1e+20 1e+20 1e+20 1e+20 1e+20 1e+20 1e+20 1e+20 1e+20 1e+20 1e+20 1e+20 1e+20 1e+20 1e+20 1e+20 1e+20 1e+20 1e+20 1e+20 1e+20 1e+20 1e+20 1e+20 1e+20 1e+20 1e+20 1e+20 1e+20 1e+20 1e+20
